# .PCD v0.7 - Point Cloud Data file format
VERSION 0.7
FIELDS x y z rgb
SIZE 4 4 4 4
TYPE F F F F
COUNT 1 1 1 1
WIDTH 1017
HEIGHT 1
VIEWPOINT 0 0 0 1 0 0 0
POINTS 1017
DATA ascii
-0.3648437 -1.6242143 0.77469951 7.9230172e-39
-0.35517249 -1.6242142 0.77469951 7.8311817e-39
-0.34472415 -1.6237272 0.77469963 7.8311817e-39
-0.33422098 -1.6242141 0.77469963 7.8311817e-39
-0.32454979 -1.6242142 0.77469963 7.8311817e-39
-0.31487861 -1.6242142 0.77469963 7.8311817e-39
-0.30520749 -1.6242138 0.77469963 7.8311831e-39
-0.29553631 -1.6242142 0.77469963 7.9233801e-39
-0.28586516 -1.6242142 0.77469963 7.8315432e-39
-0.27619401 -1.6242138 0.77469963 7.8311831e-39
-0.2676492 -1.6208069 0.77469963 7.831546e-39
-0.14307535 -1.6225104 0.77469963 7.8311831e-39
-0.13435037 -1.6242138 0.77469963 7.8311859e-39
-0.12467922 -1.6242142 0.77469963 7.831909e-39
-0.11500806 -1.6242141 0.77469963 7.8319062e-39
-0.1053369 -1.6242141 0.77469963 7.9237403e-39
-0.095665745 -1.6242138 0.77469963 7.8311831e-39
-0.085994579 -1.6242141 0.77469963 7.8311817e-39
-0.077935293 -1.6242139 0.77469963 7.7393462e-39
0.10742857 -1.6242143 0.77469951 7.831909e-39
0.11387601 -1.6242142 0.77469951 7.8319076e-39
0.12444241 -1.6237277 0.77469957 7.9237403e-39
0.13554679 -1.6247011 0.77469957 7.9233801e-39
0.1461132 -1.6242142 0.77469951 7.8311817e-39
0.15578435 -1.6242143 0.77469951 7.8311817e-39
0.16545551 -1.6242143 0.77469951 7.8315418e-39
0.17512667 -1.6242145 0.77469951 7.9233801e-39
0.18479784 -1.6242145 0.77469951 7.9237389e-39
0.19446898 -1.6242142 0.77469951 7.9233801e-39
0.20343336 -1.6235329 0.77469951 7.9237403e-39
0.24604851 -1.6242143 0.77469951 7.9237403e-39
0.25571966 -1.6242142 0.77469951 7.9241046e-39
0.26539084 -1.6242145 0.77469951 7.9241032e-39
0.27506199 -1.6242143 0.77469951 7.8319076e-39
0.28473312 -1.6242142 0.77469951 7.7400735e-39
0.2944043 -1.6242143 0.77469951 7.6478778e-39
0.30407545 -1.6242143 0.77469951 7.5556808e-39
0.31459638 -1.6237277 0.77469957 7.5556822e-39
0.32502693 -1.6242143 0.77469951 7.5560465e-39
0.33469811 -1.6242145 0.77469951 7.6482394e-39
0.34513864 -1.6247011 0.77469957 7.5556822e-39
0.35565498 -1.6242142 0.77469951 7.4631264e-39
0.47654444 -1.6242143 0.77469951 7.831909e-39
0.48460373 -1.6242145 0.77469951 7.8322691e-39
0.49508151 -1.6237277 0.77469957 7.8319062e-39
0.50555521 -1.6242142 0.77469951 7.8315446e-39
0.51522636 -1.6242143 0.77469951 7.8315446e-39
0.52489752 -1.6242143 0.77469951 7.8315474e-39
0.53456873 -1.6242142 0.77469951 7.9237417e-39
0.545057 -1.6247011 0.77469957 7.9241018e-39
0.5555256 -1.6242145 0.77469951 8.0159373e-39
0.56519675 -1.6242143 0.77469951 7.9241004e-39
0.5748679 -1.6242145 0.77469951 7.8315446e-39
0.58453912 -1.6242143 0.77469951 7.831546e-39
0.594993 -1.6237277 0.77469957 7.8319076e-39
0.60549051 -1.6242142 0.77469951 7.8319076e-39
0.61516172 -1.6242145 0.77469951 7.831909e-39
0.62483287 -1.6242143 0.77469951 7.831909e-39
0.63450402 -1.6242142 0.77469951 7.831909e-39
0.64417523 -1.6242142 0.77469951 7.8319076e-39
0.65468973 -1.6247011 0.77469957 7.9241046e-39
0.66513205 -1.6242145 0.77469951 7.831546e-39
0.67480326 -1.6242143 0.77469951 7.6471534e-39
0.68523556 -1.6237276 0.77469957 7.7389875e-39
0.69575471 -1.6242143 0.77469951 7.7393476e-39
0.7054258 -1.6242142 0.77469951 7.8315432e-39
0.71509695 -1.6242142 0.77469951 7.9237389e-39
0.72476816 -1.6242143 0.77469951 7.9237375e-39
0.73443937 -1.6242143 0.77469951 7.9233759e-39
0.74411041 -1.6242143 0.77469951 7.9233745e-39
0.75464886 -1.6247011 0.77469957 7.9233759e-39
0.7650674 -1.6242142 0.77469951 7.8315418e-39
0.77547807 -1.6237277 0.77469957 7.8311831e-39
0.78601885 -1.6242143 0.77469951 7.8315446e-39
0.79569006 -1.6242143 0.77469951 7.8315446e-39
0.80536121 -1.6242145 0.77469951 7.739349e-39
0.8150323 -1.6242142 0.77469951 7.7393476e-39
0.82470345 -1.6242143 0.77469951 7.7389889e-39
0.83437461 -1.6242143 0.77469951 7.7393476e-39
0.84404582 -1.6242143 0.77469951 7.8311831e-39
0.85460812 -1.6247011 0.77469957 7.8311817e-39
0.86500263 -1.6242143 0.77469951 7.8311817e-39
0.87538946 -1.6237276 0.77469957 7.8311817e-39
0.88595414 -1.6242142 0.77469951 7.8311817e-39
0.89562529 -1.6242143 0.77469951 7.8311817e-39
0.9052965 -1.6242145 0.77469951 7.8311817e-39
0.91174388 -1.6242143 0.77469951 7.8315418e-39
-0.91301745 -1.6140382 0.77469957 7.6475149e-39
-0.90499842 -1.6140382 0.77469957 7.5556808e-39
-0.89377183 -1.6140381 0.77469951 7.5556822e-39
-0.88414907 -1.6140381 0.77469951 7.5556836e-39
-0.8745262 -1.6140381 0.77469951 7.4638467e-39
-0.86490339 -1.6140381 0.77469951 7.4634866e-39
-0.85528058 -1.6140381 0.77469951 7.5553221e-39
-0.84565777 -1.6140381 0.77469951 7.463125e-39
-0.83603495 -1.6140381 0.77469951 7.4631236e-39
-0.57153672 -1.6109294 0.77819777 3.3194028e-39
-0.56636369 -1.6155189 0.77598488 5.7135871e-39
-0.55376548 -1.6140381 0.77469951 7.8319076e-39
-0.54414266 -1.6140381 0.77469951 7.739349e-39
-0.53451985 -1.6140381 0.77469951 7.7393462e-39
-0.52489704 -1.6140381 0.77469951 7.7393462e-39
-0.51527423 -1.6140383 0.77469951 7.8315418e-39
-0.50565141 -1.6140383 0.77469951 7.9237375e-39
-0.49602857 -1.6140383 0.77469951 7.9237375e-39
-0.48640576 -1.6140383 0.77469951 7.9233759e-39
-0.47517914 -1.6140383 0.77469951 8.0152128e-39
-0.46395254 -1.6140383 0.77469951 7.9237403e-39
-0.4543297 -1.6140383 0.77469951 7.7393504e-39
-0.44470689 -1.6140383 0.77469951 7.7389875e-39
-0.43508402 -1.6140383 0.77469951 7.831546e-39
-0.4254612 -1.6140383 0.77469951 7.9237417e-39
-0.41583839 -1.6140383 0.77469951 7.9233801e-39
-0.40621558 -1.6140383 0.77469951 7.8311831e-39
-0.39498895 -1.6140383 0.77469951 7.6471534e-39
-0.38376236 -1.6140383 0.77469951 7.6471534e-39
-0.37413946 -1.6140383 0.77469951 7.7393462e-39
-0.36451665 -1.6140381 0.77469951 7.8311831e-39
-0.35489383 -1.6140381 0.77469951 7.8315432e-39
-0.34527102 -1.6140381 0.77469951 7.9233773e-39
-0.33564821 -1.6140381 0.77469951 7.8315432e-39
-0.32602537 -1.6140381 0.77469951 7.8315418e-39
-0.31640255 -1.6140381 0.77469951 7.8315404e-39
-0.30517593 -1.6140382 0.77469957 7.8315418e-39
-0.29394931 -1.6140381 0.77469951 7.9233801e-39
-0.28432649 -1.6140381 0.77469951 7.9233787e-39
-0.27470365 -1.6140381 0.77469951 7.9237403e-39
-0.26508084 -1.6140381 0.77469951 7.9233815e-39
-0.25866562 -1.6140382 0.77469957 7.9233801e-39
-0.1528146 -1.6140382 0.77469957 7.831546e-39
-0.14639938 -1.6140381 0.77469951 7.8311831e-39
-0.13517275 -1.6140382 0.77469957 7.8311859e-39
-0.12394613 -1.6140381 0.77469951 7.8319062e-39
-0.1143233 -1.6140381 0.77469951 7.8319048e-39
-0.10470048 -1.6140381 0.77469951 7.8315446e-39
-0.095077656 -1.6140381 0.77469951 7.7393448e-39
-0.085454844 -1.6140381 0.77469951 7.7389861e-39
-0.077435821 -1.6140382 0.77469957 7.7389861e-39
0.1070016 -1.6140383 0.77469951 7.831909e-39
0.11502062 -1.6140383 0.77469951 7.831546e-39
0.12624724 -1.6140383 0.77469951 7.8315446e-39
0.13587005 -1.6140383 0.77469951 7.831546e-39
0.14549288 -1.6140383 0.77469951 7.8311817e-39
0.15511571 -1.6140383 0.77469951 7.8311817e-39
0.16473852 -1.6140383 0.77469951 7.831546e-39
0.17436135 -1.6140383 0.77469951 7.8315446e-39
0.18398416 -1.6140383 0.77469951 7.9233801e-39
0.19360699 -1.6140383 0.77469951 7.9233773e-39
0.2032298 -1.6140383 0.77469951 7.9233773e-39
0.24492872 -1.6140383 0.77469951 7.9237417e-39
0.25455153 -1.6140383 0.77469951 7.9241046e-39
0.26417434 -1.6140383 0.77469951 7.9241018e-39
0.27379718 -1.6140383 0.77469951 7.831909e-39
0.28502381 -1.6140383 0.77469951 7.7397119e-39
0.29625043 -1.6140383 0.77469951 7.6475135e-39
0.30587325 -1.6140383 0.77469951 7.5556794e-39
0.31549609 -1.6140383 0.77469951 7.5556808e-39
0.3251189 -1.6140383 0.77469951 7.5556822e-39
0.33474171 -1.6140383 0.77469951 7.5556836e-39
0.34436455 -1.6140383 0.77469951 7.5556822e-39
0.35632664 -1.6132971 0.775828 8.0181135e-39
0.47587645 -1.6140383 0.77469951 7.831546e-39
0.48549926 -1.6140383 0.77469951 7.8315474e-39
0.49512208 -1.6140383 0.77469951 7.8315446e-39
0.50474495 -1.6140383 0.77469951 7.8315446e-39
0.51436776 -1.6140383 0.77469951 7.831546e-39
0.52399057 -1.6140383 0.77469951 7.8319076e-39
0.53361338 -1.6140383 0.77469951 7.9241018e-39
0.54484004 -1.6140383 0.77469951 7.9241032e-39
0.55606669 -1.6140383 0.77469951 8.0162974e-39
0.5656895 -1.6140383 0.77469951 7.9241032e-39
0.57531232 -1.6140383 0.77469951 7.8322677e-39
0.58493513 -1.6140383 0.77469951 7.8322677e-39
0.59455794 -1.6140383 0.77469951 7.8322663e-39
0.60418075 -1.6140383 0.77469951 7.8319062e-39
0.61380357 -1.6140383 0.77469951 7.8322677e-39
0.62503022 -1.6140383 0.77469951 7.831909e-39
0.63625681 -1.6140383 0.77469951 7.8319062e-39
0.64587969 -1.6140383 0.77469951 7.831909e-39
0.6555025 -1.6140383 0.77469951 7.9244647e-39
0.66512531 -1.6140383 0.77469951 7.8319076e-39
0.67474812 -1.6140383 0.77469951 7.7393504e-39
0.68437093 -1.6140383 0.77469951 7.7393476e-39
0.69399375 -1.6140383 0.77469951 7.7393462e-39
0.70361656 -1.6140383 0.77469951 7.8315418e-39
0.71484321 -1.6140383 0.77469951 7.9237389e-39
0.72606987 -1.6140383 0.77469951 7.9233787e-39
0.73569268 -1.6140383 0.77469951 8.0152114e-39
0.74531549 -1.6140383 0.77469951 8.0152128e-39
0.7549383 -1.6140383 0.77469951 7.9237389e-39
0.76456112 -1.6140383 0.77469951 7.7393504e-39
0.77418393 -1.6140383 0.77469951 7.7389889e-39
0.78380674 -1.6140383 0.77469951 7.831546e-39
0.7950334 -1.6140383 0.77469951 7.9237417e-39
0.80626005 -1.6140383 0.77469951 7.9233787e-39
0.81588286 -1.6140383 0.77469951 7.7393476e-39
0.82550573 -1.6140383 0.77469951 7.6471534e-39
0.83512849 -1.6140383 0.77469951 7.6471534e-39
0.8447513 -1.6140383 0.77469951 7.7393476e-39
0.85437411 -1.6140383 0.77469951 7.8311831e-39
0.86399698 -1.6140383 0.77469951 7.8315432e-39
0.87361979 -1.6140383 0.77469951 7.9233773e-39
0.88484639 -1.6140383 0.77469951 7.8315432e-39
0.89607304 -1.6140383 0.77469951 7.9233773e-39
0.90569592 -1.6140383 0.77469951 7.8315418e-39
0.91211104 -1.6140383 0.77469951 7.9233773e-39
-0.91211087 -1.6028614 0.77469963 7.5556822e-39
-0.90448701 -1.6044515 0.77469963 7.5556836e-39
-0.89400744 -1.6039745 0.77469963 7.5560437e-39
-0.88443249 -1.6039745 0.77469963 7.6478792e-39
-0.87485743 -1.6039747 0.77469963 7.6482408e-39
-0.86528236 -1.6039747 0.77469963 7.740435e-39
-0.85570741 -1.6039745 0.77469963 7.7400735e-39
-0.84613234 -1.6039747 0.77469963 7.7393518e-39
-0.83567172 -1.6034975 0.77469963 7.5553193e-39
-0.82495278 -1.6034986 0.77573586 5.9890866e-39
-0.57513863 -1.6039624 0.77611744 5.7135857e-39
-0.56526512 -1.6039747 0.77469963 7.9241018e-39
-0.55569011 -1.6039745 0.77469963 7.8319062e-39
-0.54529822 -1.6034976 0.77469963 7.739349e-39
-0.53494698 -1.6039747 0.77469963 7.8311845e-39
-0.52537191 -1.6039747 0.77469951 7.9233773e-39
-0.51501077 -1.6044518 0.77469963 7.9233787e-39
-0.50462347 -1.6039749 0.77469951 8.0155744e-39
-0.4950484 -1.6039747 0.77469963 8.0152142e-39
-0.48547339 -1.6039747 0.77469951 7.9230158e-39
-0.4750981 -1.6034979 0.77469957 7.9233773e-39
-0.46473017 -1.6039747 0.77469963 8.0159331e-39
-0.45515513 -1.6039749 0.77469951 7.8315432e-39
-0.44558015 -1.6039747 0.77469963 7.8311817e-39
-0.43520015 -1.6044518 0.77469963 7.9237403e-39
-0.42483163 -1.6039747 0.77469951 7.9237403e-39
-0.41525662 -1.6039747 0.77469951 7.9233815e-39
-0.40489796 -1.6034976 0.77469963 7.8311859e-39
-0.39451337 -1.6039747 0.77469951 7.6475135e-39
-0.38493833 -1.6039747 0.77469963 7.6475135e-39
-0.37536326 -1.6039747 0.77469951 7.6471548e-39
-0.36496663 -1.6044518 0.77469957 7.7393476e-39
-0.35461476 -1.6039747 0.77469963 7.8315418e-39
-0.34503981 -1.6039747 0.77469963 7.8315418e-39
-0.33469775 -1.6034975 0.77469957 7.8315418e-39
-0.32429653 -1.6039747 0.77469963 7.8315418e-39
-0.31472149 -1.6039747 0.77469963 7.9233787e-39
-0.30514649 -1.6039747 0.77469951 7.9233787e-39
-0.29557148 -1.6039747 0.77469951 7.9233787e-39
-0.28515592 -1.6044518 0.77469957 7.8315446e-39
-0.27482295 -1.6039747 0.77469951 7.831546e-39
-0.26524794 -1.6039747 0.77469963 7.7393504e-39
-0.25492477 -1.6034975 0.77469957 7.647152e-39
-0.24508318 -1.6023049 0.77469957 7.8311831e-39
-0.2376904 -1.6006351 0.77469951 7.9237389e-39
-0.17077632 -1.6006351 0.77469951 7.9237389e-39
-0.16375896 -1.6023049 0.77469957 7.9237417e-39
-0.15513785 -1.6039747 0.77469963 7.9237403e-39
-0.14556284 -1.6039747 0.77469951 7.9233787e-39
-0.13598782 -1.6039747 0.77469951 7.831546e-39
-0.1255345 -1.6044519 0.77469963 7.8315446e-39
-0.1145244 -1.6034975 0.77469963 7.8315446e-39
-0.10407109 -1.6039747 0.77469951 7.7397091e-39
-0.094496071 -1.6039747 0.77469951 7.7397105e-39
-0.084921055 -1.6039747 0.77469951 7.831546e-39
-0.075953171 -1.6033068 0.77469957 7.7393476e-39
0.10817517 -1.6039748 0.77469957 7.7397119e-39
0.11615437 -1.6039747 0.77469963 7.831546e-39
0.12572938 -1.6039747 0.77469951 7.8315446e-39
0.13530441 -1.6039747 0.77469951 7.8319062e-39
0.14487942 -1.6039747 0.77469951 7.6471534e-39
0.15445442 -1.6039747 0.77469963 7.7393476e-39
0.16402946 -1.6039747 0.77469951 7.8319076e-39
0.17447901 -1.6034979 0.77469957 7.7397105e-39
0.18549666 -1.6044519 0.77469963 7.831546e-39
0.1959462 -1.6039749 0.77469951 7.9233787e-39
0.20552121 -1.6039747 0.77469951 7.9237389e-39
0.24467918 -1.6034975 0.77469957 7.9241046e-39
0.2549895 -1.6039747 0.77469963 7.9241046e-39
0.26530737 -1.6044519 0.77469957 7.9241018e-39
0.275738 -1.6039747 0.77469951 7.8319048e-39
0.28531304 -1.6039747 0.77469951 7.8311859e-39
0.29488808 -1.6039747 0.77469951 7.6475163e-39
0.30446306 -1.6039747 0.77469963 7.5556808e-39
0.31487939 -1.6034977 0.77469957 7.5556836e-39
0.32520631 -1.6039747 0.77469963 7.5560437e-39
0.33478132 -1.6039747 0.77469963 7.6478792e-39
0.34511808 -1.6044519 0.77469963 7.7400763e-39
0.35552987 -1.6039747 0.77469951 7.740435e-39
0.36139813 -1.6016189 0.77597833 8.4794574e-39
0.46968716 -1.6006352 0.77469945 7.7397105e-39
0.47521496 -1.6039749 0.77469951 7.7397105e-39
0.48479 -1.6039748 0.77469951 7.7393504e-39
0.49516228 -1.604452 0.77469951 7.7389889e-39
0.50553852 -1.6039747 0.77469951 7.739349e-39
0.51511353 -1.6039748 0.77469951 7.831546e-39
0.52468854 -1.6039748 0.77469951 7.9237417e-39
0.53505272 -1.6034976 0.77469957 7.9237417e-39
0.54543179 -1.6039748 0.77469951 7.9241046e-39
0.55500686 -1.6039748 0.77469951 8.0159373e-39
0.56458181 -1.6039748 0.77469951 7.9241004e-39
0.57497299 -1.604452 0.77469951 7.8322663e-39
0.58533037 -1.6039748 0.77469951 7.8322677e-39
0.59490538 -1.6039748 0.77469951 7.8322691e-39
0.60525292 -1.6034976 0.77469957 7.8319076e-39
0.61564863 -1.6039748 0.77469951 7.8319062e-39
0.62522364 -1.6039748 0.77469951 7.8319076e-39
0.63479871 -1.6039748 0.77469951 7.8319076e-39
0.64437366 -1.6039748 0.77469951 7.8319076e-39
0.65478373 -1.6044518 0.77469957 7.9241032e-39
0.66512221 -1.6039748 0.77469951 7.8319048e-39
0.67545319 -1.6034977 0.77469951 7.739349e-39
0.6858654 -1.6039747 0.77469951 7.8311831e-39
0.69544047 -1.6039748 0.77469951 7.9233787e-39
0.70501542 -1.6039748 0.77469951 7.9233787e-39
0.71459055 -1.6039749 0.77469951 8.0155744e-39
0.7241655 -1.6039748 0.77469951 8.015573e-39
0.7345944 -1.6044519 0.77469963 7.9230158e-39
0.744914 -1.6039747 0.77469951 7.9233773e-39
0.75522614 -1.6034976 0.77469957 7.9237389e-39
0.76565725 -1.6039748 0.77469951 7.8311831e-39
0.77523226 -1.6039747 0.77469951 7.8311817e-39
0.78480726 -1.6039747 0.77469951 7.9237417e-39
0.79438227 -1.6039748 0.77469951 7.9237403e-39
0.80395728 -1.6039747 0.77469951 7.9233815e-39
0.81440514 -1.6044518 0.77469957 7.7393504e-39
0.82542622 -1.6034976 0.77469957 7.6475149e-39
0.83587408 -1.6039748 0.77469951 7.6471548e-39
0.84544915 -1.6039748 0.77469951 7.6471548e-39
0.8550241 -1.6039748 0.77469951 7.7393476e-39
0.86459917 -1.6039748 0.77469951 7.8315418e-39
0.87417418 -1.6039747 0.77469951 7.8315418e-39
0.88463861 -1.604452 0.77469951 7.8315418e-39
0.89562649 -1.6034977 0.77469951 7.8315432e-39
0.90609092 -1.6039748 0.77469951 7.9233787e-39
0.91247427 -1.6039748 0.77469951 7.9233787e-39
-0.91170835 -1.5939996 0.77469963 7.7407951e-39
-0.90376872 -1.5939995 0.77469963 7.7407965e-39
-0.89424103 -1.5939995 0.77469963 7.8326334e-39
-0.88471341 -1.5939995 0.77469963 7.8326348e-39
-0.87518579 -1.5939995 0.77469963 7.832995e-39
-0.8656581 -1.5939995 0.77469963 7.9251892e-39
-0.85613054 -1.5939995 0.77469963 7.9244675e-39
-0.84501493 -1.5939996 0.77469963 7.831546e-39
-0.83389932 -1.5939995 0.77469963 7.7397105e-39
-0.82437176 -1.5939995 0.77469963 7.6475177e-39
-0.81455648 -1.593847 0.77568877 4.884188e-39
-0.58459622 -1.5958227 0.77692246 3.7789306e-39
-0.57506526 -1.5939996 0.77469963 7.831546e-39
-0.56394964 -1.5939997 0.77469963 7.9237403e-39
-0.55442208 -1.5939999 0.77469951 7.8315418e-39
-0.54489446 -1.5939999 0.77469951 7.8311831e-39
-0.53536683 -1.5939999 0.77469951 7.8311831e-39
-0.52583915 -1.5939999 0.77469951 7.9233773e-39
-0.51631159 -1.5939999 0.77469951 8.0152128e-39
-0.50519598 -1.5939999 0.77469951 8.0155744e-39
-0.49408039 -1.5939999 0.77469951 8.015573e-39
-0.48455274 -1.5939999 0.77469951 8.0152128e-39
-0.47502509 -1.5939999 0.77469951 8.0152128e-39
-0.46549749 -1.5939999 0.77469951 8.0155758e-39
-0.4559699 -1.594 0.77469945 7.8315418e-39
-0.44485426 -1.594 0.77469945 7.8311803e-39
-0.43373871 -1.594 0.77469945 7.9237403e-39
-0.42421111 -1.594 0.77469945 8.0159359e-39
-0.41468343 -1.5939999 0.77469945 7.9237389e-39
-0.40515578 -1.5939999 0.77469951 7.8319034e-39
-0.39562812 -1.5939999 0.77469951 7.7397091e-39
-0.3861005 -1.5939999 0.77469951 7.7393476e-39
-0.37498492 -1.5939999 0.77469951 7.6475135e-39
-0.36386934 -1.5939999 0.77469951 7.7393476e-39
-0.35434172 -1.5939999 0.77469951 7.8311845e-39
-0.34481406 -1.5939999 0.77469951 7.831546e-39
-0.33528641 -1.5939999 0.77469951 7.9233801e-39
-0.32575879 -1.5939999 0.77469951 7.9237389e-39
-0.31623116 -1.5939999 0.77469951 7.9237403e-39
-0.30511558 -1.5939999 0.77469951 8.0155772e-39
-0.294 -1.5939999 0.77469951 7.9237403e-39
-0.28447238 -1.5939999 0.77469951 7.8319048e-39
-0.27494472 -1.5939999 0.77469951 7.8315446e-39
-0.26541707 -1.5939999 0.77469951 7.8311845e-39
-0.25588945 -1.5939999 0.77469951 7.8311803e-39
-0.24477386 -1.5939999 0.77469951 7.9233773e-39
-0.2336583 -1.5939999 0.77469951 8.0159345e-39
-0.22413065 -1.5939999 0.77469951 8.0152142e-39
-0.21619095 -1.5939999 0.77469951 8.0155758e-39
-0.19237186 -1.5939999 0.77469951 8.0162974e-39
-0.18602009 -1.5939999 0.77469951 7.9237403e-39
-0.17490451 -1.5939999 0.77469951 7.9233801e-39
-0.16378894 -1.5939999 0.77469951 7.9241018e-39
-0.15426131 -1.5939999 0.77469951 7.9241018e-39
-0.14473367 -1.5939999 0.77469951 7.9241004e-39
-0.13520603 -1.5939999 0.77469951 7.9237403e-39
-0.12567839 -1.5939999 0.77469951 7.8315446e-39
-0.11615076 -1.5939999 0.77469951 7.8319062e-39
-0.10503518 -1.5939999 0.77469951 7.831909e-39
-0.093919598 -1.5939999 0.77469951 7.8322719e-39
-0.084391952 -1.5939999 0.77469951 7.831909e-39
-0.07486432 -1.5939999 0.77469951 7.8315446e-39
0.1061608 -1.5939999 0.77469951 7.7397105e-39
0.11568844 -1.5939999 0.77469951 7.8311845e-39
0.12521608 -1.5939999 0.77469951 7.8315432e-39
0.13474372 -1.5939999 0.77469951 7.831546e-39
0.14427136 -1.5939999 0.77469951 7.8311845e-39
0.15379898 -1.5939999 0.77469951 7.8311859e-39
0.16491458 -1.5939999 0.77469951 7.8322691e-39
0.17603014 -1.5939999 0.77469951 7.831546e-39
0.18555778 -1.5939999 0.77469951 7.8319076e-39
0.19508542 -1.5939999 0.77469951 7.9237403e-39
0.20461307 -1.5939999 0.77469951 7.9237417e-39
0.23954773 -1.5939999 0.77469951 8.0163002e-39
0.2458995 -1.5939999 0.77469951 7.9244661e-39
0.25542712 -1.5939999 0.77469951 7.9244647e-39
0.26495478 -1.5939999 0.77469951 7.9241018e-39
0.2744824 -1.5939999 0.77469951 7.9237403e-39
0.28401005 -1.5939999 0.77469951 7.8319062e-39
0.29512563 -1.5939999 0.77469951 7.7404378e-39
0.30624118 -1.5939999 0.77469951 7.7407965e-39
0.31576884 -1.5939999 0.77469951 7.7407965e-39
0.32529649 -1.5939999 0.77469951 7.8326334e-39
0.33482412 -1.5939999 0.77469951 7.8326348e-39
0.34435177 -1.5939999 0.77469951 7.832995e-39
0.35387936 -1.5939999 0.77469951 7.9251892e-39
0.36375612 -1.593327 0.77651447 8.5720174e-39
0.4660337 -1.5942979 0.77574277 1.050631e-38
0.47456285 -1.594 0.77469945 7.6471548e-39
0.48409048 -1.594 0.77469945 7.6467918e-39
0.49520606 -1.594 0.77469945 7.5545962e-39
0.50632161 -1.594 0.77469945 7.6471534e-39
0.51584929 -1.594 0.77469945 7.8315474e-39
0.52537692 -1.594 0.77469945 7.9233815e-39
0.53490454 -1.594 0.77469945 7.9233815e-39
0.54443222 -1.594 0.77469945 7.9237431e-39
0.55395985 -1.594 0.77469945 8.0159387e-39
0.5650754 -1.594 0.77469945 7.9241018e-39
0.57619101 -1.594 0.77469945 7.8322677e-39
0.58571863 -1.594 0.77469945 7.8322691e-39
0.59524632 -1.594 0.77469945 7.8322691e-39
0.60477394 -1.594 0.77469945 7.831909e-39
0.6143015 -1.594 0.77469945 7.831546e-39
0.62382919 -1.594 0.77469945 7.8319076e-39
0.63494474 -1.594 0.77469945 7.8311859e-39
0.64606041 -1.594 0.77469945 7.8319062e-39
0.65558797 -1.594 0.77469945 7.9237403e-39
0.66511559 -1.594 0.77469945 7.8315418e-39
0.67464322 -1.594 0.77469945 7.8311831e-39
0.6841709 -1.594 0.77469945 7.8311831e-39
0.69369859 -1.594 0.77469945 7.9233773e-39
0.70481408 -1.594 0.77469945 8.0152128e-39
0.71592975 -1.594 0.77469945 8.0155744e-39
0.72545737 -1.594 0.77469945 8.015573e-39
0.73498493 -1.594 0.77469945 8.0152128e-39
0.74451262 -1.594 0.77469945 8.0152128e-39
0.75404024 -1.594 0.77469945 8.0155758e-39
0.76515585 -1.594 0.77469945 7.8311817e-39
0.7762714 -1.594 0.77469945 7.8311803e-39
0.78579903 -1.594 0.77469945 7.9237403e-39
0.79532671 -1.594 0.77469945 8.0159359e-39
0.80485433 -1.594 0.77469945 7.9237389e-39
0.81438202 -1.594 0.77469945 7.8319034e-39
0.82390958 -1.594 0.77469945 7.7397091e-39
0.83502519 -1.594 0.77469945 7.6475121e-39
0.8461408 -1.594 0.77469945 7.6475135e-39
0.85566837 -1.594 0.77469945 7.7393476e-39
0.86519605 -1.594 0.77469945 7.8311845e-39
0.87472373 -1.594 0.77469945 7.831546e-39
0.8842513 -1.594 0.77469945 7.9233801e-39
0.89377898 -1.594 0.77469945 7.9237389e-39
0.90489459 -1.594 0.77469945 7.9237403e-39
0.91283423 -1.594 0.77469945 8.0159359e-39
-0.91185349 -1.5841336 0.77469969 7.9244675e-39
-0.90395284 -1.5841337 0.77469969 7.9244689e-39
-0.89447206 -1.5841336 0.77469969 7.8322733e-39
-0.88499123 -1.5841337 0.77469969 7.8322705e-39
-0.87551045 -1.5841336 0.77469969 7.832632e-39
-0.8660298 -1.5841336 0.77469969 7.9244689e-39
-0.85496885 -1.5841337 0.77469969 7.9244661e-39
-0.84390789 -1.5841336 0.77469969 7.8322677e-39
-0.83442712 -1.5841336 0.77469969 7.8322663e-39
-0.8249464 -1.5841336 0.77469969 7.7400735e-39
-0.81546563 -1.5841337 0.77469969 7.5556808e-39
-0.8065151 -1.5832055 0.77485001 6.5422576e-39
-0.79989654 -1.5808594 0.77469975 7.6475163e-39
-0.60060567 -1.5803342 0.77678955 2.3970864e-39
-0.59422815 -1.5848457 0.77611119 4.9763836e-39
-0.58476686 -1.5841337 0.77469963 7.8311831e-39
-0.57528615 -1.5841337 0.77469963 7.831546e-39
-0.56499189 -1.583666 0.77469963 7.9237403e-39
-0.55474705 -1.5841337 0.77469963 7.9233787e-39
-0.54526633 -1.5841337 0.77469963 7.8315418e-39
-0.53501183 -1.5846015 0.77469963 7.8311845e-39
-0.52472204 -1.5841337 0.77469963 7.9233787e-39
-0.51524121 -1.5841337 0.77469963 7.9237417e-39
-0.50496107 -1.5836661 0.77469963 7.924099e-39
-0.49470213 -1.5841337 0.77469963 8.015573e-39
-0.48522139 -1.5841337 0.77469963 7.8311803e-39
-0.47495285 -1.5846015 0.77469963 7.9233787e-39
-0.46467713 -1.5841337 0.77469963 8.0155744e-39
-0.45519641 -1.584134 0.77469951 7.7389875e-39
-0.44493029 -1.5836664 0.77469951 7.7389861e-39
-0.43465725 -1.584134 0.77469951 7.8319062e-39
-0.42517653 -1.584134 0.77469963 7.8322691e-39
-0.4148939 -1.5846015 0.77469963 7.924099e-39
-0.40463224 -1.5841337 0.77469963 7.8319048e-39
-0.39515147 -1.5841337 0.77469963 7.7397091e-39
-0.38489941 -1.583666 0.77469963 7.6475135e-39
-0.37461236 -1.5841337 0.77469963 7.7389875e-39
-0.36513162 -1.5841337 0.77469963 7.7393476e-39
-0.35565081 -1.5841337 0.77469963 7.739349e-39
-0.34535193 -1.5846015 0.77469963 7.831546e-39
-0.33510652 -1.5841337 0.77469963 7.9237389e-39
-0.32486862 -1.5836661 0.77469963 7.9237403e-39
-0.31456745 -1.5841337 0.77469963 7.9237417e-39
-0.3050867 -1.5841337 0.77469963 7.9237417e-39
-0.29560593 -1.5841337 0.77469963 7.9237431e-39
-0.28529292 -1.5846015 0.77469963 7.7397105e-39
-0.27506167 -1.5841337 0.77469963 7.739349e-39
-0.26483777 -1.5836661 0.77469963 7.8315418e-39
-0.25452256 -1.5841337 0.77469963 7.9233773e-39
-0.24504179 -1.5841337 0.77469963 8.0159373e-39
-0.23556101 -1.5841337 0.77469963 8.016296e-39
-0.22523396 -1.5846015 0.77469963 7.924099e-39
-0.21501674 -1.5841337 0.77469963 8.0159373e-39
-0.20480694 -1.583666 0.77469963 7.9241046e-39
-0.19447766 -1.5841337 0.77469963 7.8322663e-39
-0.1849969 -1.5841337 0.77469963 7.8311831e-39
-0.17551613 -1.5841337 0.77469963 7.9237389e-39
-0.16517499 -1.5846015 0.77469963 7.9237389e-39
-0.15497185 -1.5841337 0.77469963 8.0155744e-39
-0.14477609 -1.583666 0.77469963 7.9241032e-39
-0.13443278 -1.5841337 0.77469963 7.8319048e-39
-0.12495199 -1.5841337 0.77469963 7.739349e-39
-0.11547121 -1.5841337 0.77469963 7.7393504e-39
-0.10599045 -1.5841337 0.77469963 7.7393518e-39
-0.094929539 -1.5841337 0.77469963 7.7397105e-39
-0.083868645 -1.5841337 0.77469963 7.7393476e-39
-0.074387871 -1.5841337 0.77469963 7.7389875e-39
0.10574683 -1.5841337 0.77469963 7.8315446e-39
0.11522761 -1.5841337 0.77469963 7.8311845e-39
0.12470838 -1.5841337 0.77469963 7.8311859e-39
0.13418914 -1.5841337 0.77469963 7.8311845e-39
0.14454286 -1.5836661 0.77469963 7.7393476e-39
0.15543804 -1.5846015 0.77469963 7.7400735e-39
0.16579174 -1.5841337 0.77469963 7.8322691e-39
0.17527251 -1.5841337 0.77469963 7.8319062e-39
0.18475328 -1.5841337 0.77469963 7.8319104e-39
0.19423406 -1.5841337 0.77469963 7.9233801e-39
0.20457368 -1.5836661 0.77469963 7.9237389e-39
0.21034381 -1.5874081 0.77469957 7.9237403e-39
0.23847766 -1.5841339 0.77469957 7.924106e-39
0.24479818 -1.5841337 0.77469963 7.924106e-39
0.25427899 -1.5841337 0.77469963 7.8322691e-39
0.26460454 -1.5836661 0.77469963 7.8315474e-39
0.27555594 -1.5846015 0.77469963 7.831546e-39
0.28588155 -1.5841337 0.77469963 7.831909e-39
0.29536232 -1.5841337 0.77469963 7.8322705e-39
0.30484307 -1.5841337 0.77469963 7.9244661e-39
0.31432381 -1.5841337 0.77469963 7.9244689e-39
0.32463536 -1.583666 0.77469963 7.8322733e-39
0.33486295 -1.5841337 0.77469963 7.8322705e-39
0.34509796 -1.5846015 0.77469963 7.8326334e-39
0.35540721 -1.5841337 0.77469963 7.9244675e-39
0.36532992 -1.584416 0.77531707 8.2021432e-39
0.37210792 -1.5811598 0.77633524 8.756773e-39
0.45852071 -1.5831579 0.77613699 1.1060571e-38
0.46601629 -1.5841341 0.77469945 7.7393476e-39
0.4754971 -1.5841341 0.77469945 7.6467918e-39
0.48497787 -1.5841341 0.77469945 7.5545962e-39
0.49524933 -1.5836662 0.77469951 7.5545962e-39
0.50551695 -1.584134 0.77469951 7.6471548e-39
0.51499766 -1.5841341 0.77469945 7.8315474e-39
0.5244785 -1.5841341 0.77469945 7.831546e-39
0.53475797 -1.5846018 0.77469957 7.8319062e-39
0.54502279 -1.5841341 0.77469945 7.9241032e-39
0.55528015 -1.5836662 0.77469951 8.0159373e-39
0.56556183 -1.584134 0.77469951 8.0159373e-39
0.57504261 -1.584134 0.77469951 7.9237417e-39
0.58452338 -1.584134 0.77469945 7.9237417e-39
0.59481686 -1.5846016 0.77469951 7.9241032e-39
0.60506767 -1.584134 0.77469945 7.8319062e-39
0.61531109 -1.5836662 0.77469951 7.8319062e-39
0.62560672 -1.584134 0.77469945 7.8319062e-39
0.63508749 -1.5841341 0.77469945 7.8311831e-39
0.64456826 -1.5841341 0.77469945 7.831546e-39
0.65487587 -1.5846016 0.77469951 7.9237403e-39
0.66511256 -1.5841341 0.77469945 7.9233787e-39
0.6753419 -1.5836662 0.77469951 7.8315432e-39
0.6856516 -1.584134 0.77469951 7.8311845e-39
0.69513249 -1.584134 0.77469945 7.9233801e-39
0.70461321 -1.584134 0.77469951 7.9237417e-39
0.71493489 -1.5846016 0.77469951 7.924099e-39
0.7251575 -1.584134 0.77469951 7.9237375e-39
0.73537266 -1.5836662 0.77469951 7.8311803e-39
0.74569654 -1.584134 0.77469945 7.9233787e-39
0.75517732 -1.5841341 0.77469945 7.9237389e-39
0.76465815 -1.584134 0.77469951 7.7389875e-39
0.77413887 -1.584134 0.77469945 7.7389861e-39
0.78447676 -1.5846016 0.77469951 7.8319062e-39
0.79540354 -1.5836662 0.77469951 7.8322691e-39
0.80574149 -1.5841341 0.77469945 8.0159345e-39
0.81522226 -1.584134 0.77469945 7.8319048e-39
0.82470304 -1.5841341 0.77469945 7.7397091e-39
0.83418387 -1.584134 0.77469945 7.6475135e-39
0.84453583 -1.5846016 0.77469951 7.7389875e-39
0.85543436 -1.5836662 0.77469951 7.7393476e-39
0.86578631 -1.584134 0.77469945 7.7393504e-39
0.87526721 -1.5841341 0.77469951 7.831546e-39
0.88474792 -1.584134 0.77469945 7.9237389e-39
0.8942287 -1.5841341 0.77469945 7.9237403e-39
0.90459478 -1.5846018 0.77469951 7.9237417e-39
0.91217798 -1.5830426 0.77469945 7.9237417e-39
-0.91199732 -1.5743536 0.77469969 7.831546e-39
-0.90413541 -1.5743536 0.77469969 7.8319104e-39
-0.89470118 -1.5743536 0.77469969 7.8319076e-39
-0.88526678 -1.5743536 0.77469969 7.8315446e-39
-0.8758325 -1.5743536 0.77469969 7.8315474e-39
-0.86482573 -1.5743536 0.77469969 7.8319076e-39
-0.85381907 -1.5743536 0.77469969 7.8315474e-39
-0.84438473 -1.5743536 0.77469969 7.8315474e-39
-0.83495045 -1.5743536 0.77469969 7.9241004e-39
-0.82551605 -1.5743536 0.77469969 7.9241004e-39
-0.81608176 -1.5743536 0.77469969 7.8322705e-39
-0.80507517 -1.5743536 0.77469969 7.7397147e-39
-0.79566538 -1.575529 0.77674592 4.7919909e-39
-0.7890327 -1.5715594 0.77804166 1.9361082e-39
-0.61126846 -1.5713701 0.77754974 2.3970864e-39
-0.60487181 -1.5752875 0.77675086 3.9629603e-39
-0.5959478 -1.5743538 0.77469951 7.8319104e-39
-0.58494115 -1.5743538 0.77469957 7.8311845e-39
-0.57393444 -1.5743538 0.77469951 7.8315446e-39
-0.56450009 -1.5743538 0.77469951 7.9237389e-39
-0.55506575 -1.5743538 0.77469951 7.8311831e-39
-0.54563147 -1.5743538 0.77469951 7.8311817e-39
-0.53619713 -1.5743538 0.77469951 7.7389875e-39
-0.52519041 -1.5743538 0.77469957 7.7393462e-39
-0.51418376 -1.5743538 0.77469951 7.9233801e-39
-0.50474948 -1.5743538 0.77469951 7.9233773e-39
-0.49531507 -1.5743538 0.77469951 8.0155715e-39
-0.48588076 -1.5743538 0.77469951 7.9230172e-39
-0.47487408 -1.5743538 0.77469957 7.9233773e-39
-0.4638674 -1.5743538 0.77469951 7.9233759e-39
-0.45443308 -1.5743538 0.77469951 7.646789e-39
-0.44499874 -1.5743538 0.77469951 7.7389861e-39
-0.43556443 -1.5743538 0.77469951 7.8311845e-39
-0.42613009 -1.5743538 0.77469951 7.831909e-39
-0.4151234 -1.5743538 0.77469957 7.9241018e-39
-0.40411672 -1.5743538 0.77469951 7.9237417e-39
-0.39468241 -1.5743538 0.77469951 7.7397105e-39
-0.38524809 -1.5743538 0.77469951 7.7393518e-39
-0.37581372 -1.5743538 0.77469951 7.7393476e-39
-0.36480704 -1.5743538 0.77469957 7.7393504e-39
-0.35380033 -1.5743538 0.77469951 7.8322691e-39
-0.34436604 -1.5743538 0.77469951 7.8319076e-39
-0.3349317 -1.5743538 0.77469951 7.9233787e-39
-0.32549736 -1.5743538 0.77469951 7.9237375e-39
-0.31606308 -1.5743538 0.77469951 7.9237389e-39
-0.30505636 -1.5743538 0.77469957 7.831546e-39
-0.29404965 -1.5743538 0.77469951 7.8315446e-39
-0.28461537 -1.5743538 0.77469951 7.8315446e-39
-0.27518103 -1.5743538 0.77469951 7.831546e-39
-0.26574668 -1.5743538 0.77469951 7.9233787e-39
-0.25474 -1.5743538 0.77469957 8.0152114e-39
-0.2437333 -1.5743538 0.77469951 8.0162974e-39
-0.23429899 -1.5743538 0.77469951 8.0159345e-39
-0.22486465 -1.5743538 0.77469951 8.0159359e-39
-0.21543033 -1.5743538 0.77469951 8.0162988e-39
-0.20599602 -1.5743538 0.77469951 7.9237431e-39
-0.19498932 -1.5743538 0.77469957 7.831546e-39
-0.18398261 -1.5743538 0.77469951 7.9237417e-39
-0.17454831 -1.5743538 0.77469951 7.9241018e-39
-0.16511397 -1.5743538 0.77469951 8.0159359e-39
-0.15567966 -1.5743538 0.77469951 8.0159345e-39
-0.14624535 -1.5743538 0.77469951 7.9244605e-39
-0.13523863 -1.5743538 0.77469957 7.831546e-39
-0.12423193 -1.5743538 0.77469951 7.647152e-39
-0.11479761 -1.5743538 0.77469951 7.647152e-39
-0.10536329 -1.5743538 0.77469951 7.7393476e-39
-0.095928974 -1.5743538 0.77469951 7.7393476e-39
-0.084922276 -1.5743538 0.77469957 7.7389861e-39
-0.073915571 -1.5743538 0.77469951 7.7389875e-39
0.10533648 -1.5743538 0.77469951 7.8311845e-39
0.1147708 -1.5743538 0.77469951 7.739349e-39
0.12420511 -1.5743538 0.77469951 7.739349e-39
0.13521181 -1.5743538 0.77469957 7.831546e-39
0.14621852 -1.5743538 0.77469951 7.831546e-39
0.15565284 -1.5743538 0.77469951 7.8322677e-39
0.16508716 -1.5743538 0.77469951 7.8322691e-39
0.17452149 -1.5743538 0.77469951 7.8319062e-39
0.18395579 -1.5743538 0.77469951 7.8319076e-39
0.1949625 -1.5743538 0.77469957 7.9237403e-39
0.2059692 -1.5743538 0.77469951 7.9237375e-39
0.23741694 -1.5743538 0.77469957 7.8322677e-39
0.24527887 -1.5743538 0.77469957 7.8322691e-39
0.25628558 -1.5743538 0.77469951 7.831909e-39
0.26571989 -1.5743538 0.77469951 7.8319062e-39
0.2751542 -1.5743538 0.77469951 7.8315474e-39
0.28458855 -1.5743538 0.77469951 7.8315446e-39
0.29402283 -1.5743538 0.77469951 7.8311845e-39
0.30502954 -1.5743538 0.77469957 7.831546e-39
0.31603625 -1.5743538 0.77469951 7.8319104e-39
0.32547057 -1.5743538 0.77469951 7.8319076e-39
0.33490491 -1.5743538 0.77469951 7.831546e-39
0.34433922 -1.5743538 0.77469951 7.8315474e-39
0.3537735 -1.5743538 0.77469951 7.831909e-39
0.36478019 -1.5743538 0.77469957 7.8315474e-39
0.37644076 -1.5750656 0.77574337 8.2943417e-39
0.38245988 -1.5720516 0.77717251 9.0344473e-39
0.44629207 -1.5720679 0.77716333 1.2537881e-38
0.45393667 -1.5758219 0.77604556 1.0137891e-38
0.46384057 -1.5743538 0.77469951 7.8315432e-39
0.47484732 -1.5743539 0.77469951 7.6471534e-39
0.485854 -1.5743538 0.77469951 7.5545948e-39
0.49528834 -1.5743538 0.77469951 7.5545962e-39
0.5047226 -1.5743538 0.77469951 7.6471534e-39
0.51415694 -1.5743538 0.77469951 7.8315446e-39
0.52516365 -1.5743539 0.77469951 7.8315432e-39
0.53617036 -1.5743538 0.77469951 7.9233815e-39
0.54560471 -1.5743538 0.77469951 7.9237417e-39
0.55503899 -1.5743538 0.77469951 8.0159359e-39
0.56447333 -1.5743538 0.77469951 8.0162988e-39
0.57390761 -1.5743538 0.77469951 7.8319048e-39
0.58491439 -1.5743539 0.77469951 7.9233787e-39
0.5959211 -1.5743538 0.77469951 7.9237417e-39
0.60535538 -1.5743538 0.77469951 7.8319048e-39
0.61478972 -1.5743538 0.77469951 7.8319062e-39
0.62422401 -1.5743538 0.77469951 7.8319104e-39
0.63523078 -1.5743539 0.77469951 7.8311845e-39
0.64623743 -1.5743538 0.77469951 7.8315446e-39
0.65567178 -1.5743538 0.77469951 7.9237389e-39
0.66510606 -1.5743538 0.77469951 7.8311831e-39
0.67454034 -1.5743538 0.77469951 7.8311817e-39
0.68397474 -1.5743538 0.77469951 7.7389875e-39
0.6949814 -1.5743539 0.77469951 7.7393476e-39
0.70598817 -1.5743538 0.77469951 7.9233787e-39
0.71542239 -1.5743538 0.77469951 7.9233773e-39
0.72485679 -1.5743538 0.77469951 8.0152128e-39
0.73429108 -1.5743538 0.77469951 7.9230158e-39
0.74372548 -1.5743538 0.77469951 7.9233773e-39
0.75473207 -1.5743539 0.77469951 7.9233773e-39
0.76573879 -1.5743538 0.77469951 7.646789e-39
0.77517319 -1.5743538 0.77469951 7.7389861e-39
0.78460741 -1.5743538 0.77469951 7.8315432e-39
0.79404181 -1.5743538 0.77469951 7.8322677e-39
0.80504847 -1.5743539 0.77469951 7.9241004e-39
0.81605524 -1.5743538 0.77469951 7.8319062e-39
0.82548952 -1.5743538 0.77469951 7.7397105e-39
0.8349238 -1.5743538 0.77469951 7.7393518e-39
0.84435815 -1.5743538 0.77469951 7.7393476e-39
0.85379243 -1.5743538 0.77469951 7.739349e-39
0.86479914 -1.5743539 0.77469951 7.8319104e-39
0.87580585 -1.5743538 0.77469951 7.8319062e-39
0.88524026 -1.5743538 0.77469951 7.9233787e-39
0.89467454 -1.5743538 0.77469951 7.9237375e-39
0.90410882 -1.5743538 0.77469951 7.9237403e-39
0.91197073 -1.5743539 0.77469951 7.8319062e-39
-0.91213965 -1.5646794 0.77469969 7.831546e-39
-0.90431601 -1.5646795 0.77469969 7.831546e-39
-0.89492768 -1.5646795 0.77469969 7.831546e-39
-0.88553929 -1.5646795 0.77469969 7.7397105e-39
-0.87527335 -1.5642208 0.77469969 7.7397105e-39
-0.86451066 -1.5651381 0.77469969 7.7393518e-39
-0.85424477 -1.5646796 0.77469969 7.5556794e-39
-0.84485644 -1.5646796 0.77469969 7.4631264e-39
-0.83546805 -1.5646796 0.77469969 7.6475163e-39
-0.82521373 -1.564221 0.77469969 7.6478764e-39
-0.81442791 -1.5651382 0.77469969 7.7400735e-39
-0.80417353 -1.5646795 0.77469969 7.7397119e-39
-0.7947852 -1.5646796 0.77469969 7.5553193e-39
-0.78483063 -1.565648 0.77550375 6.0812794e-39
-0.77526653 -1.5629483 0.7759195 5.0682135e-39
-0.76925004 -1.5614806 0.77826917 1.6595213e-39
-0.63195479 -1.5608293 0.77684474 1.6598815e-39
-0.62444836 -1.5634404 0.77646315 4.2395402e-39
-0.61539292 -1.565617 0.77552098 6.3582264e-39
-0.60470569 -1.5651385 0.77469963 7.8315474e-39
-0.59450012 -1.5646797 0.77469951 7.831909e-39
-0.58511174 -1.5646797 0.77469963 7.7389875e-39
-0.57491553 -1.5642211 0.77469957 7.8311845e-39
-0.56477284 -1.5646797 0.77469951 7.9237417e-39
-0.55462289 -1.5651385 0.77469957 7.8311845e-39
-0.54442888 -1.5646797 0.77469951 7.7389875e-39
-0.5350405 -1.5646797 0.77469963 7.7389875e-39
-0.52485591 -1.5642211 0.77469963 7.739349e-39
-0.5147016 -1.5646797 0.77469951 7.8315432e-39
-0.50531322 -1.5646797 0.77469951 7.9233759e-39
-0.4951494 -1.5651385 0.77469957 7.8315418e-39
-0.48496923 -1.5646797 0.77469951 7.7393476e-39
-0.47479624 -1.5642211 0.77469957 7.7397105e-39
-0.46463028 -1.5646797 0.77469951 7.7397091e-39
-0.45524192 -1.5646797 0.77469963 7.6471506e-39
-0.44506648 -1.5651385 0.77469963 7.7389889e-39
-0.43489787 -1.5646796 0.77469963 7.831546e-39
-0.4247365 -1.564221 0.77469963 7.7400721e-39
-0.41455898 -1.5646796 0.77469963 7.8322691e-39
-0.40517059 -1.5646796 0.77469963 7.9241046e-39
-0.39498362 -1.5651382 0.77469963 7.9237431e-39
-0.38482657 -1.5646796 0.77469963 7.9237417e-39
-0.37467688 -1.564221 0.77469963 7.7397077e-39
-0.36448768 -1.5646796 0.77469963 7.7397105e-39
-0.35509935 -1.5646796 0.77469963 7.8319076e-39
-0.3449007 -1.5651382 0.77469963 7.8319062e-39
-0.3347553 -1.5646796 0.77469963 7.9233787e-39
-0.32461721 -1.5642211 0.77469963 7.9237403e-39
-0.31441644 -1.5646797 0.77469963 7.9237417e-39
-0.30502805 -1.5646797 0.77469963 7.8319048e-39
-0.29563969 -1.5646796 0.77469963 7.7393476e-39
-0.28542727 -1.5651382 0.77469963 7.8315432e-39
-0.27455756 -1.564221 0.77469963 7.9233787e-39
-0.26434514 -1.5646797 0.77469963 7.9237403e-39
-0.25495675 -1.5646796 0.77469963 7.924099e-39
-0.24556839 -1.5646796 0.77469963 7.9244619e-39
-0.23534438 -1.5651385 0.77469963 7.9241004e-39
-0.22449788 -1.5642211 0.77469963 8.0159359e-39
-0.21427386 -1.5646796 0.77469963 7.9241018e-39
-0.20488548 -1.5646797 0.77469963 7.9233801e-39
-0.19549714 -1.5646796 0.77469963 7.8319048e-39
-0.18526146 -1.5651382 0.77469963 7.9237417e-39
-0.17443822 -1.564221 0.77469963 7.8319076e-39
-0.16420259 -1.5646796 0.77469963 7.9241032e-39
-0.15481421 -1.5646796 0.77469963 7.9241032e-39
-0.14542586 -1.5646796 0.77469963 7.9241032e-39
-0.13517857 -1.5651382 0.77469963 7.7397119e-39
-0.12437856 -1.564221 0.77469963 7.6475163e-39
-0.11413129 -1.5646797 0.77469963 7.6475149e-39
-0.10474294 -1.5646797 0.77469951 7.7393504e-39
-0.095354564 -1.5646797 0.77469951 7.739349e-39
-0.085966207 -1.5646797 0.77469951 7.9233773e-39
-0.075013116 -1.5646799 0.77469957 7.8311817e-39
-0.067044586 -1.5614691 0.77469957 7.8311817e-39
0.098671652 -1.5646799 0.77469957 7.9230172e-39
0.10493056 -1.5646797 0.77469951 7.8315418e-39
0.11431894 -1.5646797 0.77469963 7.7389875e-39
0.12457637 -1.5642211 0.77469963 7.647152e-39
0.13535605 -1.5651385 0.77469957 7.8311859e-39
0.14561349 -1.5646797 0.77469951 7.831546e-39
0.15500183 -1.5646797 0.77469963 7.8319062e-39
0.16439022 -1.5646797 0.77469963 7.8319076e-39
0.17463604 -1.5642211 0.77469957 7.7397119e-39
0.18543895 -1.5651385 0.77469957 7.831909e-39
0.19568478 -1.5646797 0.77469963 7.9241032e-39
0.20507312 -1.5646797 0.77469951 8.015573e-39
0.23985046 -1.5678905 0.77469951 7.8319062e-39
0.24575604 -1.5646797 0.77469951 7.8319062e-39
0.25514439 -1.5646797 0.77469963 7.831546e-39
0.26453277 -1.5646797 0.77469963 7.831546e-39
0.27475533 -1.5642211 0.77469963 7.8319062e-39
0.2848717 -1.5646797 0.77469963 7.8315474e-39
0.29499531 -1.5651385 0.77469957 7.831546e-39
0.30521572 -1.5646797 0.77469963 7.831546e-39
0.31460407 -1.5646797 0.77469951 7.831546e-39
0.32481503 -1.5642211 0.77469957 7.831546e-39
0.33494297 -1.5646797 0.77469951 7.7397105e-39
0.3450782 -1.5651386 0.77469957 7.7397105e-39
0.35528696 -1.5646797 0.77469951 7.7397119e-39
0.36467531 -1.5646797 0.77469951 7.5556794e-39
0.37487468 -1.5642211 0.77469957 7.4631264e-39
0.38588476 -1.5656053 0.77552748 7.9251934e-39
0.39468902 -1.5643048 0.77629972 8.2954263e-39
0.40470037 -1.5620805 0.77614707 8.3869002e-39
0.41396073 -1.5616474 0.77638835 8.3872604e-39
0.4243314 -1.5619479 0.77596557 8.2021446e-39
0.43473977 -1.5639644 0.77643979 9.3092195e-39
0.44460857 -1.5655339 0.77511901 8.2010544e-39
0.45542955 -1.5646797 0.77469951 7.8311831e-39
0.46481791 -1.5646797 0.77469951 7.8315418e-39
0.474994 -1.5642211 0.77469957 7.7397105e-39
0.4851568 -1.5646797 0.77469951 7.6471548e-39
0.49454522 -1.5646797 0.77469951 7.5549549e-39
0.50471747 -1.5651386 0.77469957 7.6467932e-39
0.51488918 -1.5646797 0.77469963 7.739349e-39
0.52505368 -1.5642211 0.77469963 7.8315432e-39
0.53522813 -1.5646797 0.77469963 7.8315446e-39
0.54461652 -1.5646797 0.77469963 7.8319048e-39
0.55480039 -1.5651385 0.77469963 7.9237417e-39
0.56496048 -1.5646797 0.77469951 7.9237417e-39
0.57511336 -1.5642211 0.77469957 7.831546e-39
0.58529943 -1.5646797 0.77469963 7.7397077e-39
0.59468782 -1.5646797 0.77469951 7.7393504e-39
0.60488331 -1.5651385 0.77469957 7.7397119e-39
0.61503178 -1.5646797 0.77469951 7.831546e-39
0.62517303 -1.5642211 0.77469963 7.8319076e-39
0.63537073 -1.5646797 0.77469951 7.7389875e-39
0.64475912 -1.5646797 0.77469951 7.8311845e-39
0.65496618 -1.5651386 0.77469957 7.9237403e-39
0.66510302 -1.5646797 0.77469951 7.8311845e-39
0.67523271 -1.5642211 0.77469957 7.7389875e-39
0.68544197 -1.5646797 0.77469951 7.7389875e-39
0.69483042 -1.5646797 0.77469963 7.739349e-39
0.70421869 -1.5646797 0.77469951 7.8315432e-39
0.71443969 -1.5651386 0.77469957 7.9233759e-39
0.72529233 -1.5642211 0.77469963 7.8315432e-39
0.73551327 -1.5646797 0.77469963 7.7389875e-39
0.74490166 -1.5646797 0.77469951 7.7397119e-39
0.75429004 -1.5646797 0.77469951 7.7397091e-39
0.76452255 -1.5651385 0.77469957 7.6471506e-39
0.775352 -1.5642211 0.77469963 7.739349e-39
0.78558463 -1.5646797 0.77469951 7.831546e-39
0.7949729 -1.5646797 0.77469963 7.7400721e-39
0.80436128 -1.5646797 0.77469963 7.8322677e-39
0.81460541 -1.5651386 0.77469957 7.9241046e-39
0.82541168 -1.5642211 0.77469963 7.9237431e-39
0.83565587 -1.5646797 0.77469951 7.8319062e-39
0.8450442 -1.5646797 0.77469951 7.7397077e-39
0.85443252 -1.5646797 0.77469951 7.7397091e-39
0.8646884 -1.5651386 0.77469957 7.8319076e-39
0.87547129 -1.5642211 0.77469957 7.831546e-39
0.88572711 -1.5646797 0.77469951 7.9233787e-39
0.89511544 -1.5646797 0.77469963 7.9237403e-39
0.90450382 -1.5646797 0.77469963 7.9237417e-39
0.91232747 -1.5646799 0.77469957 7.8319062e-39
-0.91228074 -1.5550888 0.77469969 7.8322691e-39
-0.90449506 -1.5550886 0.77469969 7.8322677e-39
-0.89515227 -1.5550886 0.77469969 7.831909e-39
-0.88580942 -1.5550886 0.77469969 7.8319104e-39
-0.87490946 -1.5550888 0.77469969 7.8322691e-39
-0.86400956 -1.5550886 0.77469969 7.740435e-39
-0.85466677 -1.5550889 0.77469969 7.7397133e-39
-0.84532404 -1.5550889 0.77469963 7.6478764e-39
-0.83598119 -1.5550889 0.77469963 7.6478764e-39
-0.82508123 -1.5550889 0.77469963 7.6475121e-39
-0.81418133 -1.5550889 0.77469963 7.739349e-39
-0.80483848 -1.5550889 0.77469963 7.6478764e-39
-0.79549569 -1.5550889 0.77469963 7.5553179e-39
-0.78615284 -1.5550889 0.77469963 7.5542361e-39
-0.77525294 -1.5550889 0.77469963 7.7389889e-39
-0.76432294 -1.557022 0.77599782 4.6072381e-39
-0.75473279 -1.5539396 0.77677172 2.7647801e-39
-0.74476999 -1.5502858 0.77739727 1.5676858e-39
-0.65336895 -1.550681 0.77717525 1.6598815e-39
-0.64521486 -1.5540451 0.77706891 2.7655004e-39
-0.63583326 -1.5567868 0.77598053 4.7916294e-39
-0.62421089 -1.5550889 0.77469963 7.7389861e-39
-0.6148681 -1.5550889 0.77469963 7.7393504e-39
-0.60552526 -1.5550889 0.77469963 7.8315488e-39
-0.59618253 -1.555089 0.77469963 7.832632e-39
-0.58528262 -1.5550891 0.77469951 7.7393476e-39
-0.57438272 -1.5550891 0.77469951 7.8315418e-39
-0.56503987 -1.5550891 0.77469951 7.9241032e-39
-0.55569702 -1.5550891 0.77469951 7.8319062e-39
-0.54479712 -1.5550891 0.77469951 7.8311859e-39
-0.53389716 -1.5550891 0.77469951 7.8319076e-39
-0.52455431 -1.5550891 0.77469951 7.8319062e-39
-0.51521152 -1.5550891 0.77469951 7.831902e-39
-0.50586873 -1.5550891 0.77469951 7.9237361e-39
-0.49496877 -1.5550891 0.77469951 7.9233787e-39
-0.48406875 -1.5550889 0.77469963 7.739349e-39
-0.47472596 -1.5550889 0.77469963 7.7400693e-39
-0.46538317 -1.5550889 0.77469963 7.831909e-39
-0.45604035 -1.5550889 0.77469963 7.7397119e-39
-0.44514042 -1.5550889 0.77469963 7.7393504e-39
-0.43424046 -1.5550889 0.77469963 7.8319062e-39
-0.42489767 -1.5550889 0.77469963 7.9233801e-39
-0.41555485 -1.5550889 0.77469963 7.9241032e-39
-0.406212 -1.5550889 0.77469963 8.016659e-39
-0.3953121 -1.5550889 0.77469963 8.0162988e-39
-0.38441217 -1.5550889 0.77469963 7.9241046e-39
-0.37506935 -1.5550889 0.77469963 7.8315446e-39
-0.36572656 -1.5550889 0.77469963 7.8319062e-39
-0.3548266 -1.5550889 0.77469963 7.8319076e-39
-0.34392667 -1.5550889 0.77469963 7.8315432e-39
-0.33458385 -1.5550889 0.77469963 7.8315446e-39
-0.32524103 -1.5550889 0.77469963 7.9244605e-39
-0.31589824 -1.5550889 0.77469963 7.9244633e-39
-0.30499828 -1.5550889 0.77469963 7.8315446e-39
-0.29409835 -1.5550889 0.77469963 7.7397091e-39
-0.28475553 -1.5550889 0.77469963 7.8319048e-39
-0.27541274 -1.5550889 0.77469963 7.9237403e-39
-0.26606992 -1.5550889 0.77469963 8.0159373e-39
-0.25516999 -1.5550889 0.77469963 8.0155758e-39
-0.24427003 -1.5550889 0.77469963 8.0159401e-39
-0.23492724 -1.5550889 0.77469963 8.0155772e-39
-0.22558443 -1.5550889 0.77469963 8.015573e-39
-0.21468447 -1.5550889 0.77469963 7.9237389e-39
-0.20378453 -1.5550889 0.77469963 7.9233773e-39
-0.19444172 -1.5550889 0.77469963 7.8315404e-39
-0.1850989 -1.5550889 0.77469963 7.8311817e-39
-0.17575611 -1.5550889 0.77469963 7.831546e-39
-0.16485615 -1.5550889 0.77469963 7.9237431e-39
-0.15395622 -1.5550889 0.77469963 8.0159373e-39
-0.1446134 -1.5550889 0.77469963 7.9237403e-39
-0.13527061 -1.5550889 0.77469963 7.7397077e-39
-0.12592779 -1.5550889 0.77469963 7.6471548e-39
-0.11502786 -1.5550889 0.77469957 7.6475149e-39
-0.10412792 -1.5550891 0.77469951 7.7397105e-39
-0.094785117 -1.5550891 0.77469951 7.8311845e-39
-0.085442305 -1.5550891 0.77469951 7.8311831e-39
-0.0760995 -1.5550891 0.77469951 7.9233787e-39
-0.068313822 -1.5550891 0.77469951 7.9233787e-39
0.096742474 -1.5550891 0.77469951 7.8315432e-39
0.10452815 -1.5550891 0.77469951 7.9237403e-39
0.11387096 -1.5550891 0.77469951 7.7393476e-39
0.1247709 -1.5550891 0.77469951 7.7389875e-39
0.13567086 -1.5550891 0.77469951 7.8319062e-39
0.14501365 -1.5550891 0.77469951 7.8322691e-39
0.15435646 -1.5550891 0.77469951 7.831909e-39
0.16525641 -1.5550891 0.77469951 7.8319076e-39
0.17615636 -1.5550891 0.77469951 7.9241046e-39
0.18549915 -1.5550891 0.77469951 7.9244661e-39
0.19484198 -1.5550891 0.77469951 7.9244675e-39
0.20418479 -1.5550891 0.77469951 8.0159373e-39
0.24622741 -1.5550891 0.77469951 7.8319062e-39
0.25401309 -1.5550891 0.77469951 7.8315446e-39
0.26491302 -1.5550891 0.77469951 7.8311831e-39
0.27581298 -1.5550891 0.77469951 7.8311859e-39
0.2851558 -1.5550891 0.77469951 7.831546e-39
0.29761291 -1.5550891 0.77469951 7.8319076e-39
0.30384141 -1.5550891 0.77469951 7.8322691e-39
0.31474137 -1.5550891 0.77469951 7.831909e-39
0.3256413 -1.5550891 0.77469951 7.831909e-39
0.33498415 -1.5550891 0.77469951 7.8322705e-39
0.34432688 -1.5550891 0.77469951 7.8322691e-39
0.35522687 -1.5550891 0.77469951 7.7404336e-39
0.36612681 -1.5550891 0.77469951 7.6478764e-39
0.3754696 -1.5550891 0.77469951 7.6478764e-39
0.38481244 -1.5550891 0.77469951 7.6475163e-39
0.39415526 -1.5550891 0.77469951 7.6475121e-39
0.4050552 -1.5550891 0.77469951 7.739349e-39
0.41595516 -1.5550891 0.77469951 7.6478764e-39
0.42529795 -1.5550891 0.77469951 7.5549577e-39
0.43464077 -1.5550891 0.77469951 7.5542361e-39
0.44398355 -1.5550891 0.77469951 7.7389889e-39
0.45488352 -1.5550891 0.77469951 7.830823e-39
