# .PCD v0.7 - Point Cloud Data file format
VERSION 0.7
FIELDS x y z rgb
SIZE 4 4 4 4
TYPE F F F F
COUNT 1 1 1 1
WIDTH 938
HEIGHT 1
VIEWPOINT 0 0 0 1 0 0 0
POINTS 938
DATA ascii
-1.3145497 -2.4053981 -2.2649765e-06 1.4290323e-38
-1.3042883 -2.4053981 -2.2649765e-06 1.4290323e-38
-1.2940269 -2.4053981 -2.2649765e-06 1.4290323e-38
-1.2837653 -2.4053981 -2.2649765e-06 1.4290323e-38
-1.2735038 -2.4053979 -2.1755695e-06 1.4290323e-38
-1.2643584 -2.403897 -2.1457672e-06 1.4290323e-38
-1.2555499 -2.4053979 -2.1457672e-06 1.4290323e-38
-1.2452884 -2.4053981 -2.1457672e-06 1.4290323e-38
-1.235027 -2.4053981 -2.1457672e-06 1.4290323e-38
-1.2247655 -2.4053979 -2.1457672e-06 1.4290323e-38
-1.214504 -2.4053979 -2.1457672e-06 1.4290323e-38
-1.2056646 -2.406899 -2.1457672e-06 1.4290323e-38
-1.196543 -2.4053979 -2.1457672e-06 1.4290323e-38
-1.1862814 -2.4053979 -2.1457672e-06 1.4290323e-38
-1.17602 -2.4053979 -2.1457672e-06 1.4290323e-38
-1.1657586 -2.4053979 -2.1457672e-06 1.4290323e-38
-1.1554972 -2.4053979 -2.1457672e-06 1.4290323e-38
-1.1452358 -2.4053981 -2.1457672e-06 1.4290323e-38
-1.1349742 -2.4053981 -2.1457672e-06 1.4290323e-38
-1.1247128 -2.4053981 -2.1457672e-06 1.4290323e-38
-1.1144514 -2.4053979 -2.1457672e-06 1.4290323e-38
-1.10419 -2.4053979 -2.1457672e-06 1.4290323e-38
-1.0939285 -2.4053981 -2.1159649e-06 1.4290323e-38
-1.0836669 -2.4053979 -2.0265579e-06 1.4290323e-38
-1.0746095 -2.403897 -2.0265579e-06 1.4290323e-38
-1.065713 -2.4053979 -2.0265579e-06 1.4290323e-38
-1.0554516 -2.4053979 -2.0265579e-06 1.4290323e-38
-1.0451901 -2.4053979 -2.0265579e-06 1.4290323e-38
-1.0349287 -2.4053979 -2.0265579e-06 1.4290323e-38
-1.0246673 -2.4053979 -2.0265579e-06 1.4290323e-38
-1.0144057 -2.4053979 -2.0265579e-06 1.4290323e-38
-1.0041444 -2.4053979 -2.0265579e-06 1.4290323e-38
-0.99520737 -2.4068987 -2.0265579e-06 1.4290323e-38
-0.98618323 -2.4053979 -2.0265579e-06 1.4290323e-38
-0.97592175 -2.4053979 -2.0265579e-06 1.4290323e-38
-0.96566033 -2.4053979 -2.0265579e-06 1.4290323e-38
-0.95539886 -2.4053979 -2.0265579e-06 1.4290323e-38
-0.94513744 -2.4053979 -1.9669533e-06 1.4290323e-38
-0.93487591 -2.4053979 -1.847744e-06 1.4290323e-38
-0.92461455 -2.4053979 -1.847744e-06 1.4290323e-38
-0.91435301 -2.4053979 -1.847744e-06 1.4290323e-38
-0.9040916 -2.4053977 -1.847744e-06 1.4290323e-38
-0.89511728 -2.4038968 -1.8676122e-06 1.4290323e-38
-0.8861376 -2.4053979 -1.847744e-06 1.4290323e-38
-0.87587619 -2.4053979 -1.847744e-06 1.4290323e-38
-0.86561477 -2.4053979 -1.847744e-06 1.4290323e-38
-0.8553533 -2.4053979 -1.847744e-06 1.4290323e-38
-0.84509188 -2.4053979 -1.847744e-06 1.4290323e-38
-0.8348304 -2.4053979 -1.847744e-06 1.4290323e-38
-0.82456899 -2.4053977 -1.847744e-06 1.4290323e-38
-0.81430757 -2.4053979 -1.847744e-06 1.4290323e-38
-0.80404609 -2.4053979 -1.847744e-06 1.4290323e-38
-0.79378462 -2.4053977 -1.847744e-06 1.4290323e-38
-0.78475028 -2.4068987 -1.8278757e-06 1.4290323e-38
-0.77582353 -2.4053977 -1.847744e-06 1.4290323e-38
-0.76556212 -2.4053979 -1.847744e-06 1.4290323e-38
-0.75530058 -2.4053977 -1.758337e-06 1.4290323e-38
-0.74503922 -2.4053974 -1.7285347e-06 1.4290323e-38
-0.73477775 -2.4053974 -1.7285347e-06 1.4290323e-38
-0.72451627 -2.4053974 -1.7285347e-06 1.4290323e-38
-0.71425486 -2.4053974 -1.7285347e-06 1.4290323e-38
-0.70536852 -2.4038963 -1.748403e-06 1.4290323e-38
-0.69630086 -2.4053974 -1.7285347e-06 1.4290323e-38
-0.68603945 -2.4053974 -1.7285347e-06 1.4290323e-38
-0.67577803 -2.4053974 -1.7285347e-06 1.4290323e-38
-0.66551656 -2.4053974 -1.7285347e-06 1.4290323e-38
-0.65525508 -2.4053974 -1.7285347e-06 1.4290323e-38
-0.64499366 -2.4053974 -1.7285347e-06 1.4290323e-38
-0.63473225 -2.4053974 -1.7285347e-06 1.4290323e-38
-0.62447077 -2.4053974 -1.7285347e-06 1.4290323e-38
-0.61420941 -2.4053974 -1.7285347e-06 1.4290323e-38
-0.60394788 -2.4053974 -1.6987324e-06 1.4290323e-38
-0.59368646 -2.4053974 -1.7285347e-06 1.4290323e-38
-0.58342505 -2.4053977 -1.7285347e-06 1.4290323e-38
-0.57429314 -2.4068985 -1.6291937e-06 1.4290323e-38
-0.56546396 -2.4053974 -1.6689301e-06 1.4290323e-38
-0.55520248 -2.4053974 -1.6689301e-06 1.4290323e-38
-0.54494107 -2.4053974 -1.6689301e-06 1.4290323e-38
-0.53467965 -2.4053974 -1.6689301e-06 1.4290323e-38
-0.52441812 -2.4053974 -1.6689301e-06 1.4290323e-38
-0.51561981 -2.4038963 -1.7086664e-06 1.4290323e-38
-0.50646424 -2.4053974 -1.6689301e-06 1.4290323e-38
-0.49620277 -2.4053974 -1.6689301e-06 1.4290323e-38
-0.48594129 -2.4053974 -1.6689301e-06 1.4290323e-38
-0.47567987 -2.4053974 -1.6689301e-06 1.4290323e-38
-0.46541843 -2.4053974 -1.6689301e-06 1.4290323e-38
-0.45515704 -2.4053974 -1.6689301e-06 1.4290323e-38
-0.44489557 -2.4053974 -1.6689301e-06 1.4290323e-38
-0.43463412 -2.4053974 -1.6689301e-06 1.4290323e-38
-0.42437267 -2.4053974 -1.6689301e-06 1.4290323e-38
-0.41411126 -2.4053974 -1.6391277e-06 1.4290323e-38
-0.40384978 -2.4053974 -1.6093254e-06 1.4290323e-38
-0.39358836 -2.4053974 -1.6093254e-06 1.4290323e-38
-0.38332689 -2.4053972 -1.5497208e-06 1.4290323e-38
-0.37410238 -2.4068983 -1.5099844e-06 1.4290323e-38
-0.3653658 -2.4053972 -1.5497208e-06 1.4290323e-38
-0.35510436 -2.4053972 -1.5497208e-06 1.4290323e-38
-0.34484291 -2.4053972 -1.5497208e-06 1.4290323e-38
-0.33612776 -2.4038961 -1.5894572e-06 1.4290323e-38
-0.32688898 -2.4053972 -1.5497208e-06 1.4290323e-38
-0.31662753 -2.4053972 -1.5497208e-06 1.4290323e-38
-0.30636609 -2.4053972 -1.5497208e-06 1.4290323e-38
-0.29610464 -2.4053972 -1.5497208e-06 1.4290323e-38
-0.28584319 -2.4053972 -1.5497208e-06 1.4290323e-38
-0.27558178 -2.4053972 -1.5497208e-06 1.4290323e-38
-0.26532033 -2.4053972 -1.5497208e-06 1.4290323e-38
-0.25505888 -2.4053972 -1.5497208e-06 1.4290323e-38
-0.24479744 -2.4053972 -1.5497208e-06 1.4290323e-38
-0.23453601 -2.4053972 -1.5497208e-06 1.4290323e-38
-0.22427456 -2.4053972 -1.5497208e-06 1.4290323e-38
-0.21401313 -2.4053972 -1.5497208e-06 1.4290323e-38
-0.20375168 -2.4053972 -1.5497208e-06 1.4290323e-38
-0.19349024 -2.4053972 -1.5497208e-06 1.4290323e-38
-0.18322882 -2.4053972 -1.5497208e-06 1.4290323e-38
-0.17296737 -2.4053972 -1.5497208e-06 1.4290323e-38
-0.16364542 -2.4068983 -1.5099844e-06 1.4290323e-38
-0.15500627 -2.4053972 -1.5497208e-06 1.4290323e-38
-0.14637904 -2.4038961 -1.5894572e-06 1.4290323e-38
-0.13705233 -2.4053972 -1.5497208e-06 1.4290323e-38
-0.12679088 -2.4053972 -1.5497208e-06 1.4290323e-38
-0.11652945 -2.4053972 -1.5497208e-06 1.4290323e-38
-0.106268 -2.4053972 -1.5497208e-06 1.4290323e-38
-0.096006565 -2.4053972 -1.5497208e-06 1.4290323e-38
-0.085745119 -2.4053972 -1.5497208e-06 1.4290323e-38
-0.07548368 -2.4053972 -1.5497208e-06 1.4290323e-38
-0.067787603 -2.4053972 -1.5497208e-06 1.4290323e-38
0.05278432 -2.4053972 -1.5497208e-06 1.4290323e-38
0.063045762 -2.4053972 -1.5497208e-06 1.4290323e-38
0.073307201 -2.4053972 -1.5497208e-06 1.4290323e-38
0.083568648 -2.4053972 -1.5497208e-06 1.4290323e-38
0.093830079 -2.4053972 -1.5497208e-06 1.4290323e-38
0.10409153 -2.4053972 -1.5497208e-06 1.4290323e-38
0.11435296 -2.4053972 -1.5497208e-06 1.4290323e-38
0.1246144 -2.4053972 -1.5497208e-06 1.4290323e-38
0.13487585 -2.4053972 -1.5497208e-06 1.4290323e-38
0.14513728 -2.4053972 -1.5497208e-06 1.4290323e-38
0.15539873 -2.4053972 -1.5497208e-06 1.4290323e-38
0.16566016 -2.4053972 -1.5497208e-06 1.4290323e-38
0.1759216 -2.4053972 -1.5497208e-06 1.4290323e-38
0.18618304 -2.4053972 -1.5497208e-06 1.4290323e-38
0.19644448 -2.4053972 -1.5497208e-06 1.4290323e-38
0.20670593 -2.4053972 -1.5497208e-06 1.4290323e-38
0.21696736 -2.4053972 -1.5497208e-06 1.4290323e-38
0.22627743 -2.4038961 -1.5894572e-06 1.4290323e-38
0.23492132 -2.4053972 -1.5497208e-06 1.4290323e-38
0.24518275 -2.4053972 -1.5497208e-06 1.4290323e-38
0.25384328 -2.4068983 -1.5099844e-06 1.4290323e-38
0.26314384 -2.4053972 -1.5497208e-06 1.4290323e-38
0.27340528 -2.4053972 -1.5497208e-06 1.4290323e-38
0.28366673 -2.4053972 -1.5497208e-06 1.4290323e-38
0.29392818 -2.4053972 -1.5497208e-06 1.4290323e-38
0.30418959 -2.4053972 -1.5497208e-06 1.4290323e-38
0.31445104 -2.4053972 -1.5497208e-06 1.4290323e-38
0.32471251 -2.4053972 -1.5497208e-06 1.4290323e-38
0.33497393 -2.4053972 -1.5497208e-06 1.4290323e-38
0.34523535 -2.4053972 -1.5497208e-06 1.4290323e-38
0.35549682 -2.4053972 -1.5497208e-06 1.4290323e-38
0.36575824 -2.4053972 -1.5497208e-06 1.4290323e-38
0.37601969 -2.4053972 -1.5497208e-06 1.4290323e-38
0.38628113 -2.4053972 -1.5497208e-06 1.4290323e-38
0.39654255 -2.4053972 -1.5497208e-06 1.4290323e-38
0.40680403 -2.4053972 -1.5497208e-06 1.4290323e-38
0.41602612 -2.4038961 -1.5894572e-06 1.4290323e-38
0.42475796 -2.4053972 -1.5497208e-06 1.4290323e-38
0.4350194 -2.4053972 -1.5497208e-06 1.4290323e-38
0.44528085 -2.4053972 -1.5497208e-06 1.4290323e-38
0.45403406 -2.4068983 -1.5099844e-06 1.4290323e-38
0.46324193 -2.4053972 -1.5497208e-06 1.4290323e-38
0.47350341 -2.4053974 -1.6093254e-06 1.4290323e-38
0.48376483 -2.4053974 -1.6093254e-06 1.4290323e-38
0.49402627 -2.4053974 -1.6093254e-06 1.4290323e-38
0.50428772 -2.4053974 -1.6093254e-06 1.4290323e-38
0.51454914 -2.4053974 -1.6093254e-06 1.4290323e-38
0.52481061 -2.4053974 -1.6093254e-06 1.4290323e-38
0.53507203 -2.4053974 -1.6093254e-06 1.4290323e-38
0.5453335 -2.4053974 -1.6093254e-06 1.4290323e-38
0.55559492 -2.4053974 -1.6093254e-06 1.4290323e-38
0.56585634 -2.4053974 -1.6093254e-06 1.4290323e-38
0.57611781 -2.4053974 -1.6093254e-06 1.4290323e-38
0.58637923 -2.4053974 -1.6093254e-06 1.4290323e-38
0.59551817 -2.4038963 -1.6291937e-06 1.4290323e-38
0.60433322 -2.4053974 -1.6093254e-06 1.4290323e-38
0.61459464 -2.4053974 -1.6093254e-06 1.4290323e-38
0.62485611 -2.4053974 -1.6093254e-06 1.4290323e-38
0.63511753 -2.4053974 -1.6093254e-06 1.4290323e-38
0.64537895 -2.4053974 -1.6093254e-06 1.4290323e-38
0.65564042 -2.4053974 -1.6093254e-06 1.4290323e-38
0.66449112 -2.4068985 -1.5894572e-06 1.4290323e-38
0.67360151 -2.4053974 -1.6093254e-06 1.4290323e-38
0.68386292 -2.4053974 -1.6093254e-06 1.4290323e-38
0.69412434 -2.4053974 -1.6093254e-06 1.4290323e-38
0.70438582 -2.4053974 -1.6093254e-06 1.4290323e-38
0.71464729 -2.4053974 -1.6093254e-06 1.4290323e-38
0.72490865 -2.4053974 -1.6093254e-06 1.4290323e-38
0.73517013 -2.4053974 -1.6093254e-06 1.4290323e-38
0.74543154 -2.4053974 -1.6093254e-06 1.4290323e-38
0.75569308 -2.4053974 -1.6093254e-06 1.4290323e-38
0.76595443 -2.4053974 -1.6093254e-06 1.4290323e-38
0.77621585 -2.4053974 -1.6093254e-06 1.4290323e-38
0.78526688 -2.4038963 -1.6291937e-06 1.4290323e-38
0.7941699 -2.4053974 -1.6093254e-06 1.4290323e-38
0.80443126 -2.4053974 -1.6093254e-06 1.4290323e-38
0.81469274 -2.4053974 -1.6093254e-06 1.4290323e-38
0.82495415 -2.4053974 -1.6093254e-06 1.4290323e-38
0.83521563 -2.4053974 -1.6093254e-06 1.4290323e-38
0.84547704 -2.4053974 -1.6093254e-06 1.4290323e-38
0.85573846 -2.4053974 -1.6093254e-06 1.4290323e-38
0.86599994 -2.4053974 -1.6093254e-06 1.4290323e-38
0.87494802 -2.4068985 -1.5894572e-06 1.4290323e-38
0.88396102 -2.4053974 -1.6093254e-06 1.4290323e-38
0.8942225 -2.4053974 -1.6093254e-06 1.4290323e-38
0.90448391 -2.4053974 -1.6093254e-06 1.4290323e-38
0.91474533 -2.4053974 -1.6093254e-06 1.4290323e-38
0.92500681 -2.4053974 -1.6093254e-06 1.4290323e-38
0.93526828 -2.4053974 -1.6093254e-06 1.4290323e-38
0.9455297 -2.4053974 -1.6093254e-06 1.4290323e-38
0.95579112 -2.4053974 -1.6093254e-06 1.4290323e-38
0.96605259 -2.4053974 -1.6093254e-06 1.4290323e-38
0.97501564 -2.4038963 -1.6291937e-06 1.4290323e-38
0.98400652 -2.4053974 -1.6093254e-06 1.4290323e-38
0.994268 -2.4053974 -1.6093254e-06 1.4290323e-38
1.0045294 -2.4053974 -1.6093254e-06 1.4290323e-38
1.0147908 -2.4053974 -1.6093254e-06 1.4290323e-38
1.0250522 -2.4053974 -1.6093254e-06 1.4290323e-38
1.0353136 -2.4053974 -1.6093254e-06 1.4290323e-38
1.045575 -2.4053974 -1.6093254e-06 1.4290323e-38
1.0558364 -2.4053974 -1.6093254e-06 1.4290323e-38
1.066098 -2.4053974 -1.6093254e-06 1.4290323e-38
1.0751387 -2.4068985 -1.5894572e-06 1.4290323e-38
1.0840591 -2.4053974 -1.6093254e-06 1.4290323e-38
1.0943205 -2.4053974 -1.6093254e-06 1.4290323e-38
1.104582 -2.4053974 -1.6093254e-06 1.4290323e-38
1.1148434 -2.4053974 -1.6093254e-06 1.4290323e-38
1.1251049 -2.4053974 -1.6391277e-06 1.4290323e-38
1.1353663 -2.4053974 -1.6689301e-06 1.4290323e-38
1.1456277 -2.4053974 -1.6689301e-06 1.4290323e-38
1.1545076 -2.4038963 -1.7086664e-06 1.4290323e-38
1.1635816 -2.4053974 -1.6689301e-06 1.4290323e-38
1.1738431 -2.4053974 -1.6689301e-06 1.4290323e-38
1.1841047 -2.4053974 -1.6689301e-06 1.4290323e-38
1.194366 -2.4053974 -1.6689301e-06 1.4290323e-38
1.2046275 -2.4053974 -1.6689301e-06 1.4290323e-38
1.2148889 -2.4053974 -1.6689301e-06 1.4290323e-38
1.2251503 -2.4053974 -1.6689301e-06 1.4290323e-38
1.2354118 -2.4053974 -1.6689301e-06 1.4290323e-38
1.2456733 -2.4053974 -1.6689301e-06 1.4290323e-38
1.2559347 -2.4053974 -1.6689301e-06 1.4290323e-38
1.2661961 -2.4053974 -1.6689301e-06 1.4290323e-38
1.2764575 -2.4053974 -1.6689301e-06 1.4290323e-38
1.2855958 -2.4068985 -1.6291937e-06 1.4290323e-38
1.2944187 -2.4053974 -1.6689301e-06 1.4290323e-38
1.3046801 -2.4053974 -1.6689301e-06 1.4290323e-38
1.3149415 -2.4053974 -1.6689301e-06 1.4290323e-38
1.3252029 -2.4053974 -1.6689301e-06 1.4290323e-38
1.3354645 -2.4053974 -1.6689301e-06 1.4290323e-38
1.3442564 -2.4038963 -1.7086664e-06 1.4290323e-38
1.3534184 -2.4053974 -1.6689301e-06 1.4290323e-38
1.3636799 -2.4053974 -1.6689301e-06 1.4290323e-38
1.3739412 -2.4053974 -1.6689301e-06 1.4290323e-38
1.3842027 -2.4053974 -1.6689301e-06 1.4290323e-38
1.3944641 -2.4053974 -1.6689301e-06 1.4290323e-38
1.4047256 -2.4053974 -1.6689301e-06 1.4290323e-38
1.4149871 -2.4053974 -1.6689301e-06 1.4290323e-38
1.4252485 -2.4053974 -1.6689301e-06 1.4290323e-38
1.4355098 -2.4053974 -1.6689301e-06 1.4290323e-38
1.4457713 -2.4053974 -1.6689301e-06 1.4290323e-38
1.4560329 -2.4053974 -1.6689301e-06 1.4290323e-38
1.4662943 -2.4053974 -1.6689301e-06 1.4290323e-38
1.4765557 -2.4053974 -1.6689301e-06 1.4290323e-38
1.4868171 -2.4053974 -1.6689301e-06 1.4290323e-38
1.4960527 -2.4068985 -1.6291937e-06 1.4290323e-38
1.5047781 -2.4053974 -1.6689301e-06 1.4290323e-38
1.5150397 -2.4053974 -1.6689301e-06 1.4290323e-38
1.5253011 -2.4053974 -1.6689301e-06 1.4290323e-38
1.5340052 -2.4038963 -1.7086664e-06 1.4290323e-38
1.543255 -2.4053974 -1.6689301e-06 1.4290323e-38
1.5535164 -2.4053974 -1.6689301e-06 1.4290323e-38
1.5637779 -2.4053974 -1.6689301e-06 1.4290323e-38
1.5740393 -2.4053974 -1.6689301e-06 1.4290323e-38
1.5843008 -2.4053974 -1.6689301e-06 1.4290323e-38
1.5945623 -2.4053974 -1.6689301e-06 1.4290323e-38
1.6048236 -2.4053974 -1.6689301e-06 1.4290323e-38
1.6150851 -2.4053974 -1.6689301e-06 1.4290323e-38
1.6253465 -2.4053974 -1.6689301e-06 1.4290323e-38
1.635608 -2.4053974 -1.6689301e-06 1.4290323e-38
1.6458695 -2.4053974 -1.6689301e-06 1.4290323e-38
1.6561309 -2.4053974 -1.6689301e-06 1.4290323e-38
1.6635432 -2.4099004 -1.5497208e-06 1.4290323e-38
-1.6104571 -2.3919389 -2.5033951e-06 1.4290323e-38
-1.602793 -2.3919389 -2.5033951e-06 1.4290323e-38
-1.5925741 -2.3919389 -2.5033951e-06 1.4290323e-38
-1.5849099 -2.3919387 -2.3841858e-06 1.4290323e-38
-1.5772457 -2.3919387 -2.3841858e-06 1.4290323e-38
-1.5670269 -2.3919387 -2.3841858e-06 1.4290323e-38
-1.5568081 -2.3919387 -2.3841858e-06 1.4290323e-38
-1.5465894 -2.3919387 -2.3841858e-06 1.4290323e-38
-1.5363705 -2.3919387 -2.3841858e-06 1.4290323e-38
-1.5261517 -2.3919387 -2.3841858e-06 1.4290323e-38
-1.5159328 -2.3919387 -2.3841858e-06 1.4290323e-38
-1.5057139 -2.3919387 -2.3841858e-06 1.4290323e-38
-1.4954951 -2.3919387 -2.3841858e-06 1.4290323e-38
-1.4852765 -2.3919387 -2.3841858e-06 1.4290323e-38
-1.4750576 -2.3919387 -2.3841858e-06 1.4290323e-38
-1.4648387 -2.3919387 -2.3841858e-06 1.4290323e-38
-1.4546199 -2.3919387 -2.3841858e-06 1.4290323e-38
-1.444401 -2.3919387 -2.3841858e-06 1.4290323e-38
-1.4341822 -2.3919384 -2.2649765e-06 1.4290323e-38
-1.4239633 -2.3919384 -2.2649765e-06 1.4290323e-38
-1.4137444 -2.3919384 -2.2649765e-06 1.4290323e-38
-1.4035256 -2.3919384 -2.2649765e-06 1.4290323e-38
-1.3933067 -2.3919384 -2.2649765e-06 1.4290323e-38
-1.3830881 -2.3919384 -2.2649765e-06 1.4290323e-38
-1.3728693 -2.3919384 -2.2649765e-06 1.4290323e-38
-1.3626504 -2.3919384 -2.2649765e-06 1.4290323e-38
-1.3549863 -2.3919384 -2.2649765e-06 1.4290323e-38
-1.3473222 -2.3919384 -2.2649765e-06 1.4290323e-38
-1.3371034 -2.3919384 -2.2649765e-06 1.4290323e-38
-1.3268845 -2.3919384 -2.2649765e-06 1.4290323e-38
-1.3166656 -2.3919384 -2.2649765e-06 1.4290323e-38
-1.3064468 -2.3919384 -2.2649765e-06 1.4290323e-38
-1.2962279 -2.3919384 -2.2649765e-06 1.4290323e-38
-1.2860093 -2.3919384 -2.2649765e-06 1.4290323e-38
-1.2757905 -2.3919384 -2.2649765e-06 1.4290323e-38
-1.2655716 -2.3919384 -2.2649765e-06 1.4290323e-38
-1.2553527 -2.3919384 -2.2649765e-06 1.4290323e-38
-1.2451339 -2.3919382 -2.1457672e-06 1.4290323e-38
-1.234915 -2.3919382 -2.1457672e-06 1.4290323e-38
-1.2246962 -2.3919382 -2.1457672e-06 1.4290323e-38
-1.2144773 -2.3919382 -2.1457672e-06 1.4290323e-38
-1.2042584 -2.3919382 -2.1457672e-06 1.4290323e-38
-1.1940397 -2.3919382 -2.1457672e-06 1.4290323e-38
-1.183821 -2.3919382 -2.1457672e-06 1.4290323e-38
-1.1736021 -2.3919382 -2.1457672e-06 1.4290323e-38
-1.1633832 -2.3919382 -2.1457672e-06 1.4290323e-38
-1.1531644 -2.3919382 -2.1457672e-06 1.4290323e-38
-1.1429455 -2.3919382 -2.1457672e-06 1.4290323e-38
-1.1327268 -2.3919382 -2.1457672e-06 1.4290323e-38
-1.1250627 -2.3919382 -2.1457672e-06 1.4290323e-38
-1.1173985 -2.3919382 -2.1457672e-06 1.4290323e-38
-1.1071796 -2.3919382 -2.0861626e-06 1.4290323e-38
-1.0969608 -2.3919382 -2.0265579e-06 1.4290323e-38
-1.0867419 -2.3919382 -2.0265579e-06 1.4290323e-38
-1.0765232 -2.3919382 -2.0265579e-06 1.4290323e-38
-1.0663044 -2.3919382 -2.0265579e-06 1.4290323e-38
-1.0560856 -2.3919382 -2.0265579e-06 1.4290323e-38
-1.0458667 -2.3919382 -2.0265579e-06 1.4290323e-38
-1.0356479 -2.3919382 -2.0265579e-06 1.4290323e-38
-1.025429 -2.3919382 -2.0265579e-06 1.4290323e-38
-1.0152103 -2.3919382 -2.0265579e-06 1.4290323e-38
-1.0049915 -2.3919382 -2.0265579e-06 1.4290323e-38
-0.99477255 -2.3919382 -2.0265579e-06 1.4290323e-38
-0.98455369 -2.3919382 -2.0265579e-06 1.4290323e-38
-0.97433496 -2.3919382 -2.0265579e-06 1.4290323e-38
-0.9641161 -2.3919382 -2.0265579e-06 1.4290323e-38
-0.9538973 -2.3919382 -2.0265579e-06 1.4290323e-38
-0.9436785 -2.3919382 -2.0265579e-06 1.4290323e-38
-0.93345964 -2.3919382 -2.0265579e-06 1.4290323e-38
-0.92324084 -2.3919382 -2.0265579e-06 1.4290323e-38
-0.91302192 -2.391938 -1.7881393e-06 1.4290323e-38
-0.90280312 -2.391938 -1.7881393e-06 1.4290323e-38
-0.89258432 -2.391938 -1.7881393e-06 1.4290323e-38
-0.88492018 -2.391938 -1.7881393e-06 1.4290323e-38
-0.87725604 -2.391938 -1.7881393e-06 1.4290323e-38
-0.86703724 -2.391938 -1.7881393e-06 1.4290323e-38
-0.85681844 -2.391938 -1.7881393e-06 1.4290323e-38
-0.84659958 -2.391938 -1.7881393e-06 1.4290323e-38
-0.83638078 -2.391938 -1.7881393e-06 1.4290323e-38
-0.82616198 -2.391938 -1.7881393e-06 1.4290323e-38
-0.81594312 -2.391938 -1.7881393e-06 1.4290323e-38
-0.80572432 -2.391938 -1.7881393e-06 1.4290323e-38
-0.79550552 -2.391938 -1.7881393e-06 1.4290323e-38
-0.78528666 -2.391938 -1.7881393e-06 1.4290323e-38
-0.77506781 -2.3919377 -1.7285347e-06 1.4290323e-38
-0.76484895 -2.3919377 -1.6689301e-06 1.4290323e-38
-0.75463015 -2.3919377 -1.6689301e-06 1.4290323e-38
-0.74441135 -2.3919377 -1.6689301e-06 1.4290323e-38
-0.73419249 -2.3919377 -1.6689301e-06 1.4290323e-38
-0.72397369 -2.3919377 -1.6689301e-06 1.4290323e-38
-0.71375489 -2.3919377 -1.6689301e-06 1.4290323e-38
-0.70353609 -2.3919377 -1.6689301e-06 1.4290323e-38
-0.69331729 -2.3919377 -1.6689301e-06 1.4290323e-38
-0.68309844 -2.3919377 -1.6689301e-06 1.4290323e-38
-0.67287964 -2.3919377 -1.6689301e-06 1.4290323e-38
-0.66266084 -2.3919377 -1.6689301e-06 1.4290323e-38
-0.65499669 -2.3919377 -1.6689301e-06 1.4290323e-38
-0.64733255 -2.3919377 -1.6689301e-06 1.4290323e-38
-0.63711375 -2.3919377 -1.6689301e-06 1.4290323e-38
-0.62689495 -2.3919377 -1.6689301e-06 1.4290323e-38
-0.61667609 -2.3919377 -1.6689301e-06 1.4290323e-38
-0.60645729 -2.3919377 -1.6689301e-06 1.4290323e-38
-0.59623849 -2.3919377 -1.6689301e-06 1.4290323e-38
-0.58601964 -2.3919377 -1.6689301e-06 1.4290323e-38
-0.57580084 -2.3919377 -1.6689301e-06 1.4290323e-38
-0.56558204 -2.3919377 -1.6689301e-06 1.4290323e-38
-0.55536318 -2.3919377 -1.6689301e-06 1.4290323e-38
-0.54514438 -2.3919377 -1.6689301e-06 1.4290323e-38
-0.53492558 -2.3919377 -1.6689301e-06 1.4290323e-38
-0.52470672 -2.3919377 -1.6689301e-06 1.4290323e-38
-0.51448792 -2.3919377 -1.6689301e-06 1.4290323e-38
-0.50426912 -2.3919377 -1.6689301e-06 1.4290323e-38
-0.49405029 -2.3919377 -1.6689301e-06 1.4290323e-38
-0.48383147 -2.3919377 -1.6689301e-06 1.4290323e-38
-0.47361267 -2.3919377 -1.6689301e-06 1.4290323e-38
-0.46339387 -2.3919377 -1.6689301e-06 1.4290323e-38
-0.45317504 -2.3919377 -1.6689301e-06 1.4290323e-38
-0.44295621 -2.3919377 -1.6689301e-06 1.4290323e-38
-0.43273741 -2.3919377 -1.6689301e-06 1.4290323e-38
-0.42507327 -2.3919377 -1.6689301e-06 1.4290323e-38
-0.41740918 -2.3919377 -1.6689301e-06 1.4290323e-38
-0.40719035 -2.3919377 -1.6689301e-06 1.4290323e-38
-0.39697155 -2.3919377 -1.6689301e-06 1.4290323e-38
-0.38675272 -2.3919377 -1.6093254e-06 1.4290323e-38
-0.37653387 -2.3919375 -1.5497208e-06 1.4290323e-38
-0.36631507 -2.3919375 -1.5497208e-06 1.4290323e-38
-0.35609624 -2.3919375 -1.5497208e-06 1.4290323e-38
-0.34587741 -2.3919375 -1.5497208e-06 1.4290323e-38
-0.33565861 -2.3919375 -1.5497208e-06 1.4290323e-38
-0.32543978 -2.3919375 -1.5497208e-06 1.4290323e-38
-0.31522095 -2.3919375 -1.5497208e-06 1.4290323e-38
-0.30500215 -2.3919375 -1.5497208e-06 1.4290323e-38
-0.29478335 -2.3919375 -1.5497208e-06 1.4290323e-38
-0.28456452 -2.3919375 -1.5497208e-06 1.4290323e-38
-0.2743457 -2.3919375 -1.5497208e-06 1.4290323e-38
-0.2641269 -2.3919373 -1.4901161e-06 1.4290323e-38
-0.25390804 -2.3919373 -1.4305115e-06 1.4290323e-38
-0.24368922 -2.3919373 -1.4305115e-06 1.4290323e-38
-0.23347041 -2.3919373 -1.4305115e-06 1.4290323e-38
-0.2232516 -2.3919373 -1.4305115e-06 1.4290323e-38
-0.21303278 -2.3919373 -1.4305115e-06 1.4290323e-38
-0.20281395 -2.3919373 -1.4305115e-06 1.4290323e-38
-0.19259515 -2.3919373 -1.4305115e-06 1.4290323e-38
-0.18493104 -2.3919373 -1.4305115e-06 1.4290323e-38
-0.17726693 -2.3919373 -1.4305115e-06 1.4290323e-38
-0.1670481 -2.3919373 -1.4305115e-06 1.4290323e-38
-0.1568293 -2.3919373 -1.4305115e-06 1.4290323e-38
-0.14661047 -2.3919373 -1.4305115e-06 1.4290323e-38
-0.13639165 -2.3919373 -1.4305115e-06 1.4290323e-38
-0.12617284 -2.3919373 -1.4305115e-06 1.4290323e-38
-0.11595402 -2.3919373 -1.4305115e-06 1.4290323e-38
-0.10573521 -2.3919373 -1.4305115e-06 1.4290323e-38
-0.095516384 -2.3919373 -1.4305115e-06 1.4290323e-38
-0.08529757 -2.3919373 -1.4305115e-06 1.4290323e-38
-0.075078756 -2.3919373 -1.4305115e-06 1.4290323e-38
-0.067414641 -2.3919373 -1.4305115e-06 1.4290323e-38
0.052656449 -2.3919373 -1.4305115e-06 1.4290323e-38
0.062875263 -2.3919373 -1.4305115e-06 1.4290323e-38
0.073094085 -2.3919373 -1.4305115e-06 1.4290323e-38
0.083312899 -2.3919373 -1.4305115e-06 1.4290323e-38
0.093531713 -2.3919373 -1.4305115e-06 1.4290323e-38
0.10375053 -2.3919373 -1.4305115e-06 1.4290323e-38
0.11396934 -2.3919373 -1.4305115e-06 1.4290323e-38
0.12418817 -2.3919373 -1.4305115e-06 1.4290323e-38
0.13440698 -2.3919373 -1.4305115e-06 1.4290323e-38
0.1446258 -2.3919373 -1.4305115e-06 1.4290323e-38
0.15484461 -2.3919373 -1.4305115e-06 1.4290323e-38
0.16506344 -2.3919373 -1.4305115e-06 1.4290323e-38
0.17528224 -2.3919373 -1.4305115e-06 1.4290323e-38
0.18550107 -2.3919373 -1.4305115e-06 1.4290323e-38
0.19571987 -2.3919373 -1.4305115e-06 1.4290323e-38
0.2059387 -2.3919373 -1.4305115e-06 1.4290323e-38
0.21615751 -2.3919373 -1.4305115e-06 1.4290323e-38
0.22637632 -2.3919373 -1.4305115e-06 1.4290323e-38
0.23659515 -2.3919373 -1.4305115e-06 1.4290323e-38
0.24681395 -2.3919373 -1.4305115e-06 1.4290323e-38
0.25703275 -2.3919373 -1.4305115e-06 1.4290323e-38
0.26725161 -2.3919373 -1.4305115e-06 1.4290323e-38
0.2749157 -2.3919373 -1.4305115e-06 1.4290323e-38
0.28257981 -2.3919373 -1.4305115e-06 1.4290323e-38
0.29279864 -2.3919373 -1.4305115e-06 1.4290323e-38
0.30301744 -2.3919373 -1.4305115e-06 1.4290323e-38
0.31323627 -2.3919373 -1.4305115e-06 1.4290323e-38
0.3234551 -2.3919373 -1.4305115e-06 1.4290323e-38
0.33367389 -2.3919373 -1.4305115e-06 1.4290323e-38
0.34389272 -2.3919373 -1.4305115e-06 1.4290323e-38
0.35411155 -2.3919373 -1.4305115e-06 1.4290323e-38
0.36433035 -2.3919373 -1.4305115e-06 1.4290323e-38
0.37454915 -2.3919373 -1.4305115e-06 1.4290323e-38
0.38476798 -2.3919373 -1.4305115e-06 1.4290323e-38
0.39498681 -2.3919373 -1.4305115e-06 1.4290323e-38
0.40520561 -2.3919373 -1.4305115e-06 1.4290323e-38
0.41542444 -2.3919373 -1.4305115e-06 1.4290323e-38
0.42564327 -2.3919373 -1.4305115e-06 1.4290323e-38
0.43586206 -2.3919373 -1.4305115e-06 1.4290323e-38
0.44608086 -2.3919373 -1.4305115e-06 1.4290323e-38
0.45629969 -2.3919373 -1.4305115e-06 1.4290323e-38
0.46651852 -2.3919373 -1.4305115e-06 1.4290323e-38
0.47673732 -2.3919373 -1.4305115e-06 1.4290323e-38
0.48695615 -2.3919373 -1.4305115e-06 1.4290323e-38
0.49717498 -2.3919373 -1.4305115e-06 1.4290323e-38
0.50739378 -2.3919373 -1.4305115e-06 1.4290323e-38
0.51505792 -2.3919373 -1.4305115e-06 1.4290323e-38
0.52272201 -2.3919373 -1.4305115e-06 1.4290323e-38
0.53294086 -2.3919373 -1.4305115e-06 1.4290323e-38
0.54315966 -2.3919373 -1.4305115e-06 1.4290323e-38
0.55337846 -2.3919373 -1.4305115e-06 1.4290323e-38
0.56359732 -2.3919373 -1.4305115e-06 1.4290323e-38
0.57381612 -2.3919373 -1.4305115e-06 1.4290323e-38
0.58403492 -2.3919373 -1.4305115e-06 1.4290323e-38
0.59425372 -2.3919373 -1.4305115e-06 1.4290323e-38
0.60447252 -2.3919373 -1.4305115e-06 1.4290323e-38
0.61469138 -2.3919373 -1.4305115e-06 1.4290323e-38
0.62491018 -2.3919373 -1.4305115e-06 1.4290323e-38
0.63512897 -2.3919373 -1.4305115e-06 1.4290323e-38
0.64534783 -2.3919373 -1.4305115e-06 1.4290323e-38
0.65556663 -2.3919373 -1.4305115e-06 1.4290323e-38
0.66578543 -2.3919373 -1.4305115e-06 1.4290323e-38
0.67600429 -2.3919373 -1.4305115e-06 1.4290323e-38
0.68622309 -2.3919373 -1.4305115e-06 1.4290323e-38
0.69644189 -2.3919373 -1.4305115e-06 1.4290323e-38
0.70666075 -2.3919373 -1.4305115e-06 1.4290323e-38
0.71687955 -2.3919373 -1.4305115e-06 1.4290323e-38
0.72709835 -2.3919373 -1.4305115e-06 1.4290323e-38
0.7373172 -2.3919373 -1.4305115e-06 1.4290323e-38
0.74498129 -2.3919373 -1.4305115e-06 1.4290323e-38
0.75264537 -2.3919373 -1.4305115e-06 1.4290323e-38
0.76286423 -2.3919373 -1.4305115e-06 1.4290323e-38
0.77308303 -2.3919373 -1.4305115e-06 1.4290323e-38
0.78330183 -2.3919373 -1.4305115e-06 1.4290323e-38
0.79352069 -2.3919373 -1.4305115e-06 1.4290323e-38
0.80373949 -2.3919373 -1.4305115e-06 1.4290323e-38
0.81395829 -2.3919373 -1.4305115e-06 1.4290323e-38
0.82417709 -2.3919373 -1.4305115e-06 1.4290323e-38
0.83439589 -2.3919373 -1.4305115e-06 1.4290323e-38
0.84461474 -2.3919373 -1.4305115e-06 1.4290323e-38
0.85483354 -2.3919373 -1.4305115e-06 1.4290323e-38
0.86505234 -2.3919373 -1.4305115e-06 1.4290323e-38
0.8752712 -2.3919373 -1.4305115e-06 1.4290323e-38
0.88549 -2.3919373 -1.4305115e-06 1.4290323e-38
0.8957088 -2.3919373 -1.4305115e-06 1.4290323e-38
0.90592766 -2.3919373 -1.4305115e-06 1.4290323e-38
0.91614646 -2.3919373 -1.4305115e-06 1.4290323e-38
0.92636526 -2.3919373 -1.4305115e-06 1.4290323e-38
0.93658412 -2.3919373 -1.4305115e-06 1.4290323e-38
0.94680291 -2.3919373 -1.4305115e-06 1.4290323e-38
0.95702171 -2.3919373 -1.4305115e-06 1.4290323e-38
0.96724057 -2.3919373 -1.4305115e-06 1.4290323e-38
0.97490466 -2.3919373 -1.4305115e-06 1.4290323e-38
0.98256874 -2.3919373 -1.4305115e-06 1.4290323e-38
0.9927876 -2.3919373 -1.4305115e-06 1.4290323e-38
1.0030065 -2.3919373 -1.4305115e-06 1.4290323e-38
1.0132251 -2.3919373 -1.4305115e-06 1.4290323e-38
1.0234439 -2.3919373 -1.4305115e-06 1.4290323e-38
1.0336628 -2.3919373 -1.4305115e-06 1.4290323e-38
1.0438817 -2.3919373 -1.4305115e-06 1.4290323e-38
1.0541005 -2.3919373 -1.4305115e-06 1.4290323e-38
1.0643191 -2.3919373 -1.4305115e-06 1.4290323e-38
1.074538 -2.3919373 -1.4305115e-06 1.4290323e-38
1.0847569 -2.3919373 -1.4305115e-06 1.4290323e-38
1.0949757 -2.3919373 -1.4305115e-06 1.4290323e-38
1.1051946 -2.3919373 -1.4305115e-06 1.4290323e-38
1.1154134 -2.3919373 -1.4901161e-06 1.4290323e-38
1.1256323 -2.3919375 -1.5497208e-06 1.4290323e-38
1.1358511 -2.3919375 -1.5497208e-06 1.4290323e-38
1.1460698 -2.3919375 -1.5497208e-06 1.4290323e-38
1.1562886 -2.3919375 -1.5497208e-06 1.4290323e-38
1.1665075 -2.3919375 -1.5497208e-06 1.4290323e-38
1.1767263 -2.3919375 -1.5497208e-06 1.4290323e-38
1.1869452 -2.3919375 -1.5497208e-06 1.4290323e-38
1.1971639 -2.3919375 -1.5497208e-06 1.4290323e-38
1.2073827 -2.3919375 -1.5497208e-06 1.4290323e-38
1.2150469 -2.3919375 -1.5497208e-06 1.4290323e-38
1.2227111 -2.3919375 -1.5497208e-06 1.4290323e-38
1.2329297 -2.3919375 -1.5497208e-06 1.4290323e-38
1.2431486 -2.3919375 -1.5497208e-06 1.4290323e-38
1.2533674 -2.3919375 -1.5497208e-06 1.4290323e-38
1.2635863 -2.3919375 -1.5497208e-06 1.4290323e-38
1.2738051 -2.3919375 -1.5497208e-06 1.4290323e-38
1.2840239 -2.3919375 -1.5497208e-06 1.4290323e-38
1.2942426 -2.3919375 -1.5497208e-06 1.4290323e-38
1.3044615 -2.3919375 -1.5497208e-06 1.4290323e-38
1.3146803 -2.3919375 -1.5497208e-06 1.4290323e-38
1.3248992 -2.3919375 -1.5497208e-06 1.4290323e-38
1.3351181 -2.3919375 -1.5497208e-06 1.4290323e-38
1.3453368 -2.3919375 -1.5497208e-06 1.4290323e-38
1.3555555 -2.3919375 -1.5497208e-06 1.4290323e-38
1.3657744 -2.3919375 -1.5497208e-06 1.4290323e-38
1.3759933 -2.3919375 -1.5497208e-06 1.4290323e-38
1.3862121 -2.3919375 -1.5497208e-06 1.4290323e-38
1.396431 -2.3919375 -1.5497208e-06 1.4290323e-38
1.4066496 -2.3919375 -1.5497208e-06 1.4290323e-38
1.4168684 -2.3919375 -1.5497208e-06 1.4290323e-38
1.4270873 -2.3919375 -1.5497208e-06 1.4290323e-38
1.4373062 -2.3919375 -1.5497208e-06 1.4290323e-38
1.4449703 -2.3919375 -1.5497208e-06 1.4290323e-38
1.4526343 -2.3919375 -1.5497208e-06 1.4290323e-38
1.4628532 -2.3919375 -1.5497208e-06 1.4290323e-38
1.4730721 -2.3919375 -1.5497208e-06 1.4290323e-38
1.4832909 -2.3919375 -1.5497208e-06 1.4290323e-38
1.4935097 -2.3919375 -1.5497208e-06 1.4290323e-38
1.5037284 -2.3919375 -1.5497208e-06 1.4290323e-38
1.5139472 -2.3919375 -1.5497208e-06 1.4290323e-38
1.5241661 -2.3919375 -1.5497208e-06 1.4290323e-38
1.534385 -2.3919375 -1.5497208e-06 1.4290323e-38
1.5446038 -2.3919375 -1.5497208e-06 1.4290323e-38
1.5548224 -2.3919375 -1.5497208e-06 1.4290323e-38
1.5650413 -2.3919375 -1.5497208e-06 1.4290323e-38
1.5752602 -2.3919375 -1.5497208e-06 1.4290323e-38
1.585479 -2.3919375 -1.5497208e-06 1.4290323e-38
1.5956979 -2.3919375 -1.5497208e-06 1.4290323e-38
1.6059167 -2.3919375 -1.5497208e-06 1.4290323e-38
1.6161354 -2.3919375 -1.5497208e-06 1.4290323e-38
1.6263542 -2.3919375 -1.5497208e-06 1.4290323e-38
1.6365731 -2.3919375 -1.5497208e-06 1.4290323e-38
1.6467919 -2.3919375 -1.5497208e-06 1.4290323e-38
1.654456 -2.3919375 -1.5497208e-06 1.4290323e-38
-1.6034036 -2.3830318 -2.5629997e-06 1.4290323e-38
-1.5932128 -2.3830318 -2.5033951e-06 1.4290323e-38
-1.5830221 -2.3830318 -2.5033951e-06 1.4290323e-38
-1.5728316 -2.3830318 -2.5033951e-06 1.4290323e-38
-1.5626409 -2.3830318 -2.5033951e-06 1.4290323e-38
-1.554998 -2.3830318 -2.5033951e-06 1.4290323e-38
-1.5473551 -2.3830318 -2.5033951e-06 1.4290323e-38
-1.5371644 -2.3830318 -2.5033951e-06 1.4290323e-38
-1.5269737 -2.3830318 -2.5033951e-06 1.4290323e-38
-1.5167832 -2.3830318 -2.5033951e-06 1.4290323e-38
-1.5065925 -2.3830318 -2.5033951e-06 1.4290323e-38
-1.496402 -2.3830318 -2.5033951e-06 1.4290323e-38
-1.4862113 -2.3830318 -2.5033951e-06 1.4290323e-38
-1.4760207 -2.3830318 -2.5033951e-06 1.4290323e-38
-1.4658301 -2.3830318 -2.5033951e-06 1.4290323e-38
-1.4556395 -2.3830318 -2.5033951e-06 1.4290323e-38
-1.4454489 -2.3830318 -2.5033951e-06 1.4290323e-38
-1.4352583 -2.3830318 -2.5033951e-06 1.4290323e-38
-1.4250677 -2.3830318 -2.5033951e-06 1.4290323e-38
-1.4148769 -2.3830318 -2.3841858e-06 1.4290323e-38
-1.4046862 -2.3830316 -2.2649765e-06 1.4290323e-38
-1.3944957 -2.3830316 -2.2649765e-06 1.4290323e-38
-1.384305 -2.3830316 -2.2649765e-06 1.4290323e-38
-1.3741145 -2.3830316 -2.2649765e-06 1.4290323e-38
-1.3639238 -2.3830316 -2.2649765e-06 1.4290323e-38
-1.3537332 -2.3830316 -2.2649765e-06 1.4290323e-38
-1.3435426 -2.3830316 -2.2649765e-06 1.4290323e-38
-1.333352 -2.3830316 -2.2649765e-06 1.4290323e-38
-1.3231614 -2.3830316 -2.2649765e-06 1.4290323e-38
-1.3129708 -2.3830316 -2.2649765e-06 1.4290323e-38
-1.3027802 -2.3830316 -2.2649765e-06 1.4290323e-38
-1.2925894 -2.3830316 -2.2649765e-06 1.4290323e-38
-1.2849466 -2.3830316 -2.2649765e-06 1.4290323e-38
-1.2773036 -2.3830316 -2.2649765e-06 1.4290323e-38
-1.267113 -2.3830314 -2.2053719e-06 1.4290323e-38
-1.2569222 -2.3830314 -2.1457672e-06 1.4290323e-38
-1.2467316 -2.3830314 -2.1457672e-06 1.4290323e-38
-1.236541 -2.3830314 -2.1457672e-06 1.4290323e-38
-1.2263503 -2.3830314 -2.1457672e-06 1.4290323e-38
-1.2161598 -2.3830314 -2.1457672e-06 1.4290323e-38
-1.2059691 -2.3830314 -2.1457672e-06 1.4290323e-38
-1.1957786 -2.3830314 -2.1457672e-06 1.4290323e-38
-1.1855879 -2.3830314 -2.1457672e-06 1.4290323e-38
-1.1753974 -2.3830314 -2.1457672e-06 1.4290323e-38
-1.1652067 -2.3830314 -2.1457672e-06 1.4290323e-38
-1.1550161 -2.3830314 -2.1457672e-06 1.4290323e-38
-1.1448255 -2.3830314 -2.1457672e-06 1.4290323e-38
-1.1346349 -2.3830314 -2.1457672e-06 1.4290323e-38
-1.1244442 -2.3830314 -2.1457672e-06 1.4290323e-38
-1.1142536 -2.3830314 -2.1457672e-06 1.4290323e-38
-1.104063 -2.3830314 -2.1457672e-06 1.4290323e-38
-1.0938723 -2.3830314 -2.1457672e-06 1.4290323e-38
-1.0836818 -2.3830314 -2.0861626e-06 1.4290323e-38
-1.0734911 -2.3830311 -2.0265579e-06 1.4290323e-38
-1.0633004 -2.3830311 -2.0265579e-06 1.4290323e-38
-1.0531099 -2.3830311 -2.0265579e-06 1.4290323e-38
-1.0429192 -2.3830311 -2.0265579e-06 1.4290323e-38
-1.0327287 -2.3830311 -2.0265579e-06 1.4290323e-38
-1.0250857 -2.3830311 -2.0265579e-06 1.4290323e-38
-1.0174427 -2.3830311 -2.0265579e-06 1.4290323e-38
-1.0072521 -2.3830311 -2.0265579e-06 1.4290323e-38
-0.99706143 -2.3830311 -2.0265579e-06 1.4290323e-38
-0.98687077 -2.3830311 -2.0265579e-06 1.4290323e-38
-0.97668016 -2.3830311 -2.0265579e-06 1.4290323e-38
-0.96648955 -2.3830311 -2.0265579e-06 1.4290323e-38
-0.95629895 -2.3830311 -2.0265579e-06 1.4290323e-38
-0.94610834 -2.3830311 -2.0265579e-06 1.4290323e-38
-0.93591768 -2.3830309 -1.9669533e-06 1.4290323e-38
-0.92572701 -2.3830309 -1.9073486e-06 1.4290323e-38
-0.9155364 -2.3830309 -1.9073486e-06 1.4290323e-38
-0.9053458 -2.3830309 -1.9073486e-06 1.4290323e-38
-0.89515519 -2.3830309 -1.9073486e-06 1.4290323e-38
-0.88496459 -2.3830309 -1.9073486e-06 1.4290323e-38
-0.87477398 -2.3830309 -1.9073486e-06 1.4290323e-38
-0.86458337 -2.3830309 -1.9073486e-06 1.4290323e-38
-0.85439277 -2.3830309 -1.9073486e-06 1.4290323e-38
-0.84420216 -2.3830309 -1.9073486e-06 1.4290323e-38
-0.83401155 -2.3830309 -1.9073486e-06 1.4290323e-38
-0.82382095 -2.3830309 -1.9073486e-06 1.4290323e-38
-0.81363028 -2.3830309 -1.9073486e-06 1.4290323e-38
-0.80343962 -2.3830309 -1.9073486e-06 1.4290323e-38
-0.79324901 -2.3830309 -1.9073486e-06 1.4290323e-38
-0.7830584 -2.3830309 -1.9073486e-06 1.4290323e-38
-0.7728678 -2.3830309 -1.9073486e-06 1.4290323e-38
-0.76267719 -2.3830309 -1.9073486e-06 1.4290323e-38
-0.75503427 -2.3830309 -1.9073486e-06 1.4290323e-38
-0.74739122 -2.3830307 -1.7881393e-06 1.4290323e-38
-0.73720062 -2.3830307 -1.7881393e-06 1.4290323e-38
-0.72701001 -2.3830307 -1.7881393e-06 1.4290323e-38
-0.71681941 -2.3830307 -1.7881393e-06 1.4290323e-38
-0.7066288 -2.3830307 -1.7881393e-06 1.4290323e-38
-0.69643819 -2.3830307 -1.7881393e-06 1.4290323e-38
-0.68624759 -2.3830307 -1.7881393e-06 1.4290323e-38
-0.67605698 -2.3830307 -1.7881393e-06 1.4290323e-38
-0.66586637 -2.3830307 -1.7881393e-06 1.4290323e-38
-0.65567577 -2.3830307 -1.7881393e-06 1.4290323e-38
-0.6454851 -2.3830307 -1.7881393e-06 1.4290323e-38
-0.63529444 -2.3830307 -1.7881393e-06 1.4290323e-38
-0.62510383 -2.3830307 -1.7881393e-06 1.4290323e-38
-0.61491323 -2.3830307 -1.7881393e-06 1.4290323e-38
-0.60472262 -2.3830304 -1.6689301e-06 1.4290323e-38
-0.59453201 -2.3830304 -1.5497208e-06 1.4290323e-38
-0.58434141 -2.3830304 -1.5497208e-06 1.4290323e-38
-0.5741508 -2.3830304 -1.5497208e-06 1.4290323e-38
-0.56396019 -2.3830304 -1.5497208e-06 1.4290323e-38
-0.55376959 -2.3830304 -1.5497208e-06 1.4290323e-38
-0.54357898 -2.3830304 -1.5497208e-06 1.4290323e-38
-0.53338838 -2.3830304 -1.5497208e-06 1.4290323e-38
-0.52319765 -2.3830304 -1.5497208e-06 1.4290323e-38
-0.51300704 -2.3830304 -1.5497208e-06 1.4290323e-38
-0.50281644 -2.3830304 -1.5497208e-06 1.4290323e-38
-0.49262586 -2.3830304 -1.5497208e-06 1.4290323e-38
-0.48498291 -2.3830304 -1.5497208e-06 1.4290323e-38
-0.47733995 -2.3830304 -1.5497208e-06 1.4290323e-38
-0.46714935 -2.3830304 -1.5497208e-06 1.4290323e-38
-0.45695874 -2.3830304 -1.5497208e-06 1.4290323e-38
-0.44676813 -2.3830304 -1.5497208e-06 1.4290323e-38
-0.43657753 -2.3830304 -1.5497208e-06 1.4290323e-38
-0.42638692 -2.3830304 -1.5497208e-06 1.4290323e-38
-0.41619632 -2.3830304 -1.5497208e-06 1.4290323e-38
-0.40600571 -2.3830304 -1.5497208e-06 1.4290323e-38
-0.3958151 -2.3830304 -1.5497208e-06 1.4290323e-38
-0.38562444 -2.3830304 -1.5497208e-06 1.4290323e-38
-0.37543383 -2.3830302 -1.5497208e-06 1.4290323e-38
-0.36524323 -2.3830302 -1.5497208e-06 1.4290323e-38
-0.35505262 -2.3830302 -1.5497208e-06 1.4290323e-38
-0.34486201 -2.3830302 -1.5497208e-06 1.4290323e-38
-0.33467138 -2.3830302 -1.5497208e-06 1.4290323e-38
-0.32448074 -2.3830302 -1.5497208e-06 1.4290323e-38
-0.31429014 -2.3830302 -1.5497208e-06 1.4290323e-38
-0.30409953 -2.3830302 -1.5497208e-06 1.4290323e-38
-0.29390892 -2.3830302 -1.5497208e-06 1.4290323e-38
-0.28371832 -2.3830302 -1.5497208e-06 1.4290323e-38
-0.27352771 -2.3830302 -1.5497208e-06 1.4290323e-38
-0.26333711 -2.3830302 -1.5497208e-06 1.4290323e-38
-0.2531465 -2.3830302 -1.5497208e-06 1.4290323e-38
-0.24295588 -2.3830302 -1.5497208e-06 1.4290323e-38
-0.23276527 -2.3830302 -1.5497208e-06 1.4290323e-38
-0.22257465 -2.3830302 -1.5497208e-06 1.4290323e-38
-0.2149317 -2.3830302 -1.5497208e-06 1.4290323e-38
-0.20728874 -2.3830302 -1.5497208e-06 1.4290323e-38
-0.19709814 -2.3830302 -1.5497208e-06 1.4290323e-38
-0.18690753 -2.3830302 -1.5497208e-06 1.4290323e-38
-0.17671691 -2.3830302 -1.5497208e-06 1.4290323e-38
-0.1665263 -2.3830302 -1.5497208e-06 1.4290323e-38
-0.15633568 -2.3830302 -1.5497208e-06 1.4290323e-38
-0.14614508 -2.3830302 -1.5497208e-06 1.4290323e-38
-0.13595447 -2.3830302 -1.5497208e-06 1.4290323e-38
-0.12576386 -2.3830302 -1.5497208e-06 1.4290323e-38
-0.11557324 -2.3830302 -1.5497208e-06 1.4290323e-38
-0.10538264 -2.3830302 -1.5497208e-06 1.4290323e-38
-0.095192023 -2.3830302 -1.5497208e-06 1.4290323e-38
-0.085001409 -2.3830302 -1.5497208e-06 1.4290323e-38
-0.074810803 -2.3830302 -1.5497208e-06 1.4290323e-38
-0.067167841 -2.3830302 -1.5497208e-06 1.4290323e-38
0.052571833 -2.3830302 -1.5497208e-06 1.4290323e-38
0.062762439 -2.3830302 -1.5497208e-06 1.4290323e-38
0.07295306 -2.3830302 -1.5497208e-06 1.4290323e-38
0.083143666 -2.3830302 -1.5497208e-06 1.4290323e-38
0.093334273 -2.3830302 -1.5497208e-06 1.4290323e-38
0.10352489 -2.3830302 -1.5497208e-06 1.4290323e-38
0.1137155 -2.3830302 -1.5497208e-06 1.4290323e-38
0.12390611 -2.3830302 -1.5497208e-06 1.4290323e-38
0.13409671 -2.3830302 -1.5497208e-06 1.4290323e-38
0.14428732 -2.3830302 -1.5497208e-06 1.4290323e-38
0.15447794 -2.3830302 -1.5497208e-06 1.4290323e-38
0.16466855 -2.3830302 -1.5497208e-06 1.4290323e-38
0.17485917 -2.3830302 -1.5497208e-06 1.4290323e-38
0.18504977 -2.3830302 -1.5497208e-06 1.4290323e-38
0.19524038 -2.3830302 -1.5497208e-06 1.4290323e-38
0.205431 -2.3830302 -1.5497208e-06 1.4290323e-38
0.21562161 -2.3830302 -1.5497208e-06 1.4290323e-38
0.22581221 -2.3830302 -1.5497208e-06 1.4290323e-38
0.23600283 -2.3830302 -1.5497208e-06 1.4290323e-38
0.24619344 -2.3830302 -1.5497208e-06 1.4290323e-38
0.25638404 -2.3830302 -1.5497208e-06 1.4290323e-38
0.26657465 -2.3830302 -1.5497208e-06 1.4290323e-38
0.27676526 -2.3830302 -1.5497208e-06 1.4290323e-38
0.28695586 -2.3830302 -1.5497208e-06 1.4290323e-38
0.29714647 -2.3830302 -1.5497208e-06 1.4290323e-38
0.30733708 -2.3830302 -1.5497208e-06 1.4290323e-38
0.31498009 -2.3830302 -1.5497208e-06 1.4290323e-38
0.32262304 -2.3830302 -1.5497208e-06 1.4290323e-38
0.33281365 -2.3830302 -1.5497208e-06 1.4290323e-38
0.34300426 -2.3830302 -1.5497208e-06 1.4290323e-38
0.35319486 -2.3830302 -1.5497208e-06 1.4290323e-38
0.36338547 -2.3830302 -1.5497208e-06 1.4290323e-38
0.37357607 -2.3830302 -1.5497208e-06 1.4290323e-38
0.38376668 -2.3830302 -1.5497208e-06 1.4290323e-38
0.39395729 -2.3830302 -1.5497208e-06 1.4290323e-38
0.40414789 -2.3830302 -1.5497208e-06 1.4290323e-38
0.4143385 -2.3830302 -1.5497208e-06 1.4290323e-38
0.42452911 -2.3830302 -1.5497208e-06 1.4290323e-38
0.43471971 -2.3830302 -1.5497208e-06 1.4290323e-38
0.44491035 -2.3830302 -1.5497208e-06 1.4290323e-38
0.45510098 -2.3830302 -1.5497208e-06 1.4290323e-38
0.46529159 -2.3830304 -1.5497208e-06 1.4290323e-38
0.4754822 -2.3830304 -1.5497208e-06 1.4290323e-38
0.4856728 -2.3830304 -1.5497208e-06 1.4290323e-38
0.49586347 -2.3830304 -1.5497208e-06 1.4290323e-38
0.50605404 -2.3830304 -1.5497208e-06 1.4290323e-38
0.51624465 -2.3830304 -1.5497208e-06 1.4290323e-38
0.52643526 -2.3830304 -1.5497208e-06 1.4290323e-38
0.53662586 -2.3830304 -1.5497208e-06 1.4290323e-38
0.54681647 -2.3830304 -1.5497208e-06 1.4290323e-38
0.55700707 -2.3830304 -1.5497208e-06 1.4290323e-38
0.56719768 -2.3830304 -1.5497208e-06 1.4290323e-38
0.57738841 -2.3830304 -1.5497208e-06 1.4290323e-38
0.58503133 -2.3830304 -1.5497208e-06 1.4290323e-38
0.59267426 -2.3830304 -1.5497208e-06 1.4290323e-38
0.60286486 -2.3830304 -1.5497208e-06 1.4290323e-38
0.61305547 -2.3830304 -1.5497208e-06 1.4290323e-38
0.62324607 -2.3830304 -1.5497208e-06 1.4290323e-38
0.63343668 -2.3830304 -1.5497208e-06 1.4290323e-38
0.64362729 -2.3830304 -1.5497208e-06 1.4290323e-38
0.65381789 -2.3830304 -1.5497208e-06 1.4290323e-38
0.6640085 -2.3830304 -1.5497208e-06 1.4290323e-38
0.6741991 -2.3830304 -1.5497208e-06 1.4290323e-38
0.68438983 -2.3830304 -1.5497208e-06 1.4290323e-38
0.69458044 -2.3830304 -1.5497208e-06 1.4290323e-38
0.70477104 -2.3830304 -1.5497208e-06 1.4290323e-38
0.71496165 -2.3830304 -1.5497208e-06 1.4290323e-38
0.72515225 -2.3830304 -1.5497208e-06 1.4290323e-38
0.73534286 -2.3830304 -1.5497208e-06 1.4290323e-38
0.74553347 -2.3830304 -1.5497208e-06 1.4290323e-38
0.75572407 -2.3830304 -1.5497208e-06 1.4290323e-38
0.76591468 -2.3830304 -1.5497208e-06 1.4290323e-38
0.77610528 -2.3830304 -1.5497208e-06 1.4290323e-38
0.78629589 -2.3830304 -1.5497208e-06 1.4290323e-38
0.7964865 -2.3830304 -1.5497208e-06 1.4290323e-38
0.8066771 -2.3830304 -1.5497208e-06 1.4290323e-38
0.81686771 -2.3830304 -1.5497208e-06 1.4290323e-38
0.82705832 -2.3830304 -1.5497208e-06 1.4290323e-38
0.83724892 -2.3830304 -1.5497208e-06 1.4290323e-38
0.84743953 -2.3830304 -1.5497208e-06 1.4290323e-38
0.85508251 -2.3830304 -1.5497208e-06 1.4290323e-38
0.8627255 -2.3830304 -1.5497208e-06 1.4290323e-38
0.8729161 -2.3830304 -1.5497208e-06 1.4290323e-38
0.88310671 -2.3830304 -1.5497208e-06 1.4290323e-38
0.89329731 -2.3830304 -1.5497208e-06 1.4290323e-38
0.90348792 -2.3830304 -1.5497208e-06 1.4290323e-38
0.91367853 -2.3830304 -1.5497208e-06 1.4290323e-38
0.92386913 -2.3830304 -1.5497208e-06 1.4290323e-38
0.93405974 -2.3830304 -1.5497208e-06 1.4290323e-38
0.94425035 -2.3830304 -1.5497208e-06 1.4290323e-38
0.95444095 -2.3830304 -1.5497208e-06 1.4290323e-38
0.96463156 -2.3830304 -1.5497208e-06 1.4290323e-38
0.97482216 -2.3830304 -1.5497208e-06 1.4290323e-38
0.98501277 -2.3830304 -1.5497208e-06 1.4290323e-38
0.99520338 -2.3830304 -1.5497208e-06 1.4290323e-38
1.005394 -2.3830304 -1.5497208e-06 1.4290323e-38
1.0155847 -2.3830304 -1.5497208e-06 1.4290323e-38
1.0257752 -2.3830304 -1.5497208e-06 1.4290323e-38
1.0359658 -2.3830304 -1.5497208e-06 1.4290323e-38
1.0461564 -2.3830304 -1.5497208e-06 1.4290323e-38
1.056347 -2.3830304 -1.5497208e-06 1.4290323e-38
1.0665376 -2.3830304 -1.5497208e-06 1.4290323e-38
1.0767283 -2.3830304 -1.5497208e-06 1.4290323e-38
1.0869188 -2.3830304 -1.5497208e-06 1.4290323e-38
1.0971096 -2.3830304 -1.5497208e-06 1.4290323e-38
1.1073 -2.3830304 -1.5497208e-06 1.4290323e-38
1.114943 -2.3830304 -1.5497208e-06 1.4290323e-38
1.122586 -2.3830304 -1.5497208e-06 1.4290323e-38
1.1327766 -2.3830304 -1.5497208e-06 1.4290323e-38
1.1429672 -2.3830304 -1.5497208e-06 1.4290323e-38
1.1531578 -2.3830304 -1.5497208e-06 1.4290323e-38
1.1633484 -2.3830304 -1.5497208e-06 1.4290323e-38
1.1735392 -2.3830304 -1.5497208e-06 1.4290323e-38
1.1837296 -2.3830304 -1.5497208e-06 1.4290323e-38
1.1939204 -2.3830304 -1.5497208e-06 1.4290323e-38
1.2041109 -2.3830304 -1.5497208e-06 1.4290323e-38
1.2143016 -2.3830304 -1.5497208e-06 1.4290323e-38
1.2244921 -2.3830304 -1.5497208e-06 1.4290323e-38
1.2346828 -2.3830304 -1.5497208e-06 1.4290323e-38
1.2448733 -2.3830304 -1.5497208e-06 1.4290323e-38
1.255064 -2.3830304 -1.5497208e-06 1.4290323e-38
1.2652545 -2.3830304 -1.5497208e-06 1.4290323e-38
1.2754452 -2.3830304 -1.5497208e-06 1.4290323e-38
1.2856357 -2.3830304 -1.5497208e-06 1.4290323e-38
1.2958264 -2.3830304 -1.5497208e-06 1.4290323e-38
1.306017 -2.3830304 -1.5497208e-06 1.4290323e-38
1.3162076 -2.3830304 -1.5497208e-06 1.4290323e-38
1.3263983 -2.3830304 -1.5497208e-06 1.4290323e-38
1.3365889 -2.3830304 -1.5497208e-06 1.4290323e-38
1.3467795 -2.3830304 -1.5497208e-06 1.4290323e-38
1.3569701 -2.3830304 -1.5497208e-06 1.4290323e-38
1.3671607 -2.3830304 -1.5497208e-06 1.4290323e-38
1.3773513 -2.3830304 -1.5497208e-06 1.4290323e-38
1.3849943 -2.3830304 -1.5497208e-06 1.4290323e-38
1.3926373 -2.3830304 -1.5497208e-06 1.4290323e-38
1.4028279 -2.3830304 -1.5497208e-06 1.4290323e-38
1.4130185 -2.3830304 -1.5497208e-06 1.4290323e-38
1.4232091 -2.3830304 -1.5497208e-06 1.4290323e-38
1.4333997 -2.3830304 -1.5497208e-06 1.4290323e-38
1.4435903 -2.3830304 -1.5497208e-06 1.4290323e-38
1.4537809 -2.3830304 -1.5497208e-06 1.4290323e-38
1.4639715 -2.3830304 -1.5497208e-06 1.4290323e-38
1.4741621 -2.3830304 -1.5497208e-06 1.4290323e-38
1.4843527 -2.3830304 -1.5497208e-06 1.4290323e-38
1.4945433 -2.3830304 -1.5497208e-06 1.4290323e-38
1.504734 -2.3830304 -1.5497208e-06 1.4290323e-38
1.5149245 -2.3830304 -1.5497208e-06 1.4290323e-38
1.5251153 -2.3830304 -1.5497208e-06 1.4290323e-38
1.5353057 -2.3830304 -1.5497208e-06 1.4290323e-38
1.5454965 -2.3830304 -1.5497208e-06 1.4290323e-38
1.555687 -2.3830304 -1.5497208e-06 1.4290323e-38
1.5658777 -2.3830304 -1.5497208e-06 1.4290323e-38
1.5760682 -2.3830304 -1.5497208e-06 1.4290323e-38
1.5862589 -2.3830304 -1.5497208e-06 1.4290323e-38
1.5964494 -2.3830304 -1.5497208e-06 1.4290323e-38
1.6066401 -2.3830304 -1.5497208e-06 1.4290323e-38
1.6168307 -2.3830304 -1.5497208e-06 1.4290323e-38
1.6270213 -2.3830304 -1.5497208e-06 1.4290323e-38
1.6372119 -2.3830304 -1.5497208e-06 1.4290323e-38
1.6474025 -2.3830304 -1.5497208e-06 1.4290323e-38
-1.6014701 -2.3741739 -2.6226044e-06 1.4290323e-38
-1.593848 -2.3741736 -2.5033951e-06 1.4290323e-38
-1.5836854 -2.3741736 -2.5033951e-06 1.4290323e-38
-1.5735228 -2.3741736 -2.5033951e-06 1.4290323e-38
-1.5633605 -2.3741736 -2.5033951e-06 1.4290323e-38
-1.5531979 -2.3741736 -2.5033951e-06 1.4290323e-38
-1.5430353 -2.3741736 -2.5033951e-06 1.4290323e-38
-1.5328727 -2.3741736 -2.5033951e-06 1.4290323e-38
-1.5227101 -2.3741736 -2.5033951e-06 1.4290323e-38
-1.5125475 -2.3741736 -2.5033951e-06 1.4290323e-38
-1.5049256 -2.3741736 -2.5033951e-06 1.4290323e-38
-1.4973037 -2.3741736 -2.5033951e-06 1.4290323e-38
-1.4871411 -2.3741736 -2.5033951e-06 1.4290323e-38
-1.4769785 -2.3741736 -2.5033951e-06 1.4290323e-38
-1.4668159 -2.3741736 -2.5033951e-06 1.4290323e-38
-1.4566534 -2.3741736 -2.5033951e-06 1.4290323e-38
-1.4464908 -2.3741736 -2.5033951e-06 1.4290323e-38
-1.4363282 -2.3741736 -2.5033951e-06 1.4290323e-38
